446.0,443.0,439.0,438.0,437.0,437.0,436.0,435.0,433.0,433.0,432.0,433.0,435.0,435.0,435.0,440.0,445.0,453.0,462.0,468.0,474.0,474.0,473.0,473.0,473.0,472.0,470.0,470.0,469.0,470.0,471.0,468.0,465.0,461.0,457.0,450.0,442.0,439.0,435.0,433.0,431.0,431.0,430.0,434.0,438.0,446.0,455.0,460.0,465.0,465.0,465.0,467.0,470.0,474.0,478.0,479.0,481.0,483.0,485.0,483.0,481.0,483.0,485.0,490.0,496.0,496.0,495.0,493.0,490.0,488.0,485.0,485.0,486.0,486.0,485.0,486.0,488.0,491.0,494.0,491.0,487.0,487.0,486.0,488.0,491.0,491.0,491.0,497.0,504.0,509.0,514.0,516.0,518.0,517.0,516.0,518.0,520.0,521.0,523.0,525.0,527.0,527.0,527.0,526.0,525.0,526.0,527.0,527.0,526.0,525.0,524.0,521.0,518.0,515.0,512.0,512.0,511.0,507.0,503.0,501.0,498.0,497.0,495.0,493.0,491.0,489.0,486.0,483.0,480.0,477.0,474.0,468.0,462.0,456.0,450.0,446.0,442.0,442.0,441.0,449.0,458.0,457.0,455.0,452.0,449.0,447.0,444.0,447.0,450.0,459.0,468.0
442.0,441.0,439.0,438.0,437.0,436.0,435.0,434.0,433.0,436.0,439.0,443.0,448.0,444.0,440.0,443.0,446.0,455.0,465.0,475.0,485.0,488.0,492.0,495.0,498.0,493.0,488.0,483.0,478.0,476.0,474.0,470.0,465.0,461.0,456.0,450.0,444.0,440.0,436.0,437.0,439.0,442.0,446.0,444.0,442.0,452.0,462.0,470.0,478.0,480.0,482.0,485.0,488.0,488.0,488.0,491.0,494.0,495.0,497.0,494.0,490.0,493.0,496.0,500.0,505.0,504.0,503.0,503.0,502.0,498.0,494.0,494.0,494.0,495.0,496.0,496.0,497.0,499.0,501.0,502.0,503.0,503.0,503.0,505.0,507.0,502.0,497.0,501.0,505.0,511.0,518.0,522.0,526.0,526.0,527.0,527.0,528.0,528.0,529.0,530.0,532.0,532.0,533.0,532.0,531.0,530.0,529.0,527.0,525.0,523.0,521.0,517.0,512.0,508.0,504.0,503.0,501.0,498.0,495.0,495.0,496.0,493.0,490.0,487.0,484.0,483.0,481.0,477.0,473.0,467.0,460.0,453.0,445.0,444.0,442.0,444.0,446.0,446.0,445.0,455.0,466.0,468.0,470.0,470.0,470.0,467.0,464.0,464.0,463.0,472.0,482.0
443.0,442.0,440.0,440.0,439.0,438.0,437.0,441.0,446.0,451.0,456.0,456.0,457.0,451.0,445.0,446.0,448.0,455.0,462.0,471.0,480.0,489.0,499.0,501.0,503.0,501.0,498.0,493.0,488.0,485.0,482.0,478.0,474.0,467.0,460.0,455.0,450.0,448.0,445.0,452.0,459.0,460.0,461.0,455.0,448.0,451.0,454.0,463.0,472.0,482.0,493.0,499.0,505.0,504.0,502.0,502.0,501.0,504.0,508.0,506.0,504.0,507.0,511.0,512.0,513.0,512.0,511.0,510.0,508.0,508.0,507.0,509.0,512.0,510.0,508.0,506.0,504.0,504.0,504.0,506.0,509.0,510.0,512.0,512.0,513.0,513.0,512.0,510.0,508.0,514.0,521.0,524.0,528.0,530.0,532.0,531.0,530.0,530.0,530.0,531.0,532.0,531.0,529.0,529.0,528.0,527.0,526.0,524.0,521.0,518.0,514.0,509.0,503.0,499.0,495.0,492.0,489.0,489.0,488.0,490.0,492.0,488.0,483.0,481.0,478.0,475.0,471.0,465.0,459.0,455.0,450.0,447.0,443.0,445.0,448.0,449.0,450.0,449.0,447.0,452.0,458.0,465.0,472.0,477.0,482.0,486.0,490.0,490.0,489.0,493.0,498.0
443.0,442.0,441.0,441.0,442.0,445.0,448.0,456.0,464.0,465.0,467.0,465.0,463.0,456.0,448.0,455.0,463.0,467.0,471.0,474.0,478.0,483.0,488.0,491.0,495.0,494.0,493.0,491.0,488.0,485.0,482.0,478.0,473.0,469.0,464.0,458.0,451.0,453.0,455.0,463.0,472.0,471.0,470.0,462.0,453.0,450.0,447.0,454.0,461.0,473.0,486.0,495.0,504.0,509.0,514.0,514.0,513.0,513.0,512.0,514.0,517.0,517.0,518.0,517.0,515.0,515.0,514.0,514.0,514.0,515.0,516.0,519.0,523.0,522.0,520.0,517.0,513.0,513.0,513.0,515.0,518.0,517.0,516.0,516.0,517.0,519.0,521.0,520.0,519.0,521.0,523.0,525.0,527.0,528.0,530.0,530.0,529.0,528.0,527.0,526.0,524.0,522.0,520.0,519.0,518.0,517.0,516.0,512.0,508.0,505.0,502.0,499.0,495.0,492.0,489.0,487.0,484.0,482.0,480.0,480.0,479.0,476.0,472.0,470.0,468.0,462.0,456.0,455.0,454.0,457.0,461.0,459.0,456.0,456.0,456.0,455.0,454.0,452.0,450.0,449.0,448.0,451.0,454.0,464.0,475.0,486.0,498.0,504.0,510.0,508.0,506.0
443.0,445.0,447.0,451.0,456.0,458.0,460.0,468.0,477.0,478.0,479.0,473.0,466.0,458.0,450.0,461.0,473.0,477.0,482.0,487.0,492.0,492.0,492.0,491.0,489.0,486.0,482.0,479.0,475.0,472.0,469.0,466.0,462.0,459.0,456.0,455.0,453.0,460.0,467.0,473.0,479.0,479.0,478.0,472.0,465.0,461.0,456.0,455.0,453.0,465.0,478.0,487.0,496.0,501.0,507.0,510.0,514.0,515.0,516.0,517.0,519.0,519.0,520.0,519.0,518.0,518.0,519.0,520.0,521.0,522.0,524.0,525.0,526.0,524.0,521.0,521.0,522.0,523.0,524.0,525.0,527.0,527.0,526.0,526.0,525.0,527.0,529.0,529.0,529.0,530.0,531.0,530.0,529.0,527.0,524.0,523.0,522.0,520.0,518.0,515.0,512.0,509.0,506.0,506.0,505.0,502.0,498.0,496.0,494.0,492.0,490.0,490.0,490.0,486.0,482.0,481.0,480.0,477.0,474.0,468.0,462.0,460.0,457.0,454.0,451.0,451.0,452.0,458.0,465.0,467.0,470.0,466.0,462.0,463.0,464.0,464.0,465.0,461.0,457.0,456.0,454.0,450.0,446.0,454.0,462.0,476.0,491.0,498.0,505.0,502.0,498.0
455.0,458.0,462.0,465.0,469.0,467.0,465.0,476.0,487.0,486.0,485.0,474.0,462.0,459.0,455.0,470.0,485.0,491.0,497.0,498.0,499.0,499.0,499.0,496.0,492.0,487.0,482.0,475.0,468.0,464.0,460.0,458.0,455.0,455.0,455.0,459.0,464.0,471.0,478.0,484.0,491.0,490.0,489.0,485.0,480.0,474.0,467.0,459.0,451.0,459.0,467.0,476.0,485.0,490.0,496.0,500.0,504.0,507.0,510.0,514.0,519.0,520.0,522.0,522.0,521.0,523.0,526.0,527.0,528.0,528.0,529.0,529.0,529.0,526.0,523.0,524.0,525.0,527.0,529.0,530.0,531.0,532.0,533.0,533.0,534.0,534.0,534.0,534.0,533.0,531.0,529.0,525.0,520.0,517.0,514.0,512.0,509.0,507.0,505.0,504.0,502.0,500.0,498.0,494.0,490.0,488.0,485.0,485.0,484.0,481.0,478.0,478.0,479.0,475.0,470.0,469.0,468.0,466.0,464.0,461.0,458.0,459.0,460.0,460.0,461.0,459.0,457.0,460.0,464.0,465.0,467.0,465.0,462.0,464.0,466.0,468.0,470.0,468.0,465.0,464.0,462.0,457.0,451.0,452.0,453.0,466.0,479.0,486.0,493.0,494.0,495.0
476.0,475.0,474.0,471.0,468.0,469.0,470.0,478.0,487.0,486.0,485.0,474.0,462.0,464.0,466.0,479.0,493.0,501.0,509.0,510.0,511.0,507.0,503.0,499.0,495.0,488.0,480.0,473.0,465.0,464.0,462.0,464.0,466.0,469.0,472.0,478.0,484.0,489.0,495.0,498.0,501.0,501.0,501.0,494.0,486.0,478.0,469.0,463.0,457.0,458.0,460.0,464.0,469.0,473.0,477.0,481.0,486.0,491.0,497.0,503.0,509.0,514.0,520.0,521.0,522.0,526.0,530.0,532.0,534.0,536.0,538.0,538.0,539.0,537.0,535.0,533.0,531.0,536.0,541.0,543.0,545.0,544.0,543.0,540.0,537.0,533.0,529.0,527.0,524.0,522.0,520.0,517.0,514.0,511.0,508.0,506.0,504.0,502.0,500.0,499.0,497.0,496.0,495.0,493.0,490.0,486.0,482.0,476.0,469.0,471.0,474.0,474.0,475.0,472.0,469.0,469.0,470.0,469.0,468.0,467.0,466.0,469.0,473.0,473.0,474.0,469.0,464.0,463.0,462.0,462.0,463.0,464.0,465.0,465.0,464.0,464.0,464.0,463.0,462.0,460.0,458.0,452.0,446.0,453.0,460.0,470.0,480.0,486.0,492.0,492.0,492.0
483.0,483.0,483.0,476.0,469.0,472.0,475.0,484.0,493.0,491.0,489.0,477.0,465.0,468.0,471.0,489.0,507.0,515.0,523.0,520.0,516.0,510.0,504.0,496.0,488.0,481.0,473.0,472.0,471.0,473.0,476.0,478.0,481.0,483.0,485.0,493.0,502.0,506.0,511.0,512.0,513.0,510.0,506.0,493.0,479.0,470.0,460.0,466.0,472.0,476.0,480.0,473.0,466.0,469.0,472.0,474.0,477.0,481.0,485.0,489.0,493.0,497.0,502.0,506.0,510.0,515.0,520.0,524.0,528.0,532.0,537.0,540.0,543.0,542.0,541.0,543.0,546.0,550.0,555.0,553.0,551.0,547.0,543.0,540.0,536.0,534.0,531.0,528.0,525.0,523.0,521.0,520.0,518.0,515.0,512.0,510.0,507.0,507.0,507.0,506.0,504.0,502.0,500.0,498.0,495.0,491.0,487.0,484.0,480.0,483.0,487.0,486.0,485.0,484.0,482.0,481.0,480.0,477.0,473.0,473.0,474.0,476.0,479.0,479.0,478.0,474.0,470.0,468.0,465.0,465.0,464.0,464.0,463.0,463.0,462.0,461.0,460.0,460.0,461.0,460.0,458.0,453.0,448.0,451.0,454.0,461.0,469.0,475.0,482.0,484.0,487.0
497.0,494.0,490.0,480.0,469.0,470.0,472.0,482.0,492.0,492.0,493.0,481.0,468.0,472.0,476.0,497.0,519.0,523.0,527.0,522.0,517.0,508.0,499.0,490.0,480.0,477.0,474.0,478.0,483.0,487.0,491.0,495.0,500.0,504.0,508.0,516.0,524.0,527.0,530.0,525.0,520.0,511.0,502.0,484.0,466.0,466.0,466.0,476.0,487.0,491.0,496.0,491.0,486.0,484.0,481.0,482.0,484.0,484.0,483.0,483.0,483.0,485.0,488.0,492.0,497.0,502.0,507.0,512.0,517.0,523.0,529.0,535.0,542.0,543.0,545.0,550.0,556.0,555.0,554.0,552.0,550.0,549.0,547.0,545.0,543.0,541.0,539.0,536.0,533.0,530.0,527.0,525.0,523.0,522.0,520.0,518.0,515.0,514.0,512.0,511.0,509.0,507.0,504.0,501.0,497.0,493.0,488.0,488.0,489.0,490.0,492.0,491.0,490.0,489.0,488.0,486.0,483.0,480.0,477.0,478.0,480.0,479.0,478.0,477.0,476.0,475.0,473.0,468.0,462.0,462.0,461.0,460.0,458.0,458.0,458.0,457.0,456.0,455.0,454.0,453.0,451.0,450.0,449.0,451.0,454.0,458.0,462.0,467.0,473.0,480.0,488.0
506.0,503.0,499.0,487.0,475.0,476.0,478.0,485.0,492.0,492.0,493.0,483.0,473.0,474.0,475.0,491.0,507.0,512.0,517.0,514.0,510.0,501.0,492.0,486.0,480.0,481.0,483.0,489.0,495.0,502.0,509.0,514.0,519.0,521.0,523.0,528.0,534.0,534.0,533.0,525.0,516.0,501.0,485.0,473.0,460.0,471.0,482.0,494.0,507.0,510.0,514.0,509.0,504.0,498.0,492.0,495.0,498.0,499.0,501.0,499.0,496.0,494.0,491.0,493.0,496.0,501.0,506.0,511.0,516.0,521.0,527.0,536.0,545.0,551.0,557.0,559.0,561.0,560.0,558.0,558.0,558.0,557.0,555.0,553.0,551.0,548.0,544.0,540.0,536.0,534.0,531.0,531.0,530.0,529.0,527.0,523.0,518.0,515.0,512.0,509.0,506.0,504.0,501.0,498.0,494.0,492.0,490.0,492.0,495.0,495.0,495.0,494.0,492.0,490.0,487.0,486.0,485.0,485.0,484.0,481.0,477.0,475.0,472.0,472.0,472.0,470.0,467.0,463.0,459.0,458.0,457.0,455.0,453.0,453.0,452.0,451.0,449.0,451.0,453.0,454.0,456.0,456.0,455.0,461.0,467.0,470.0,473.0,475.0,478.0,484.0,491.0
516.0,509.0,502.0,500.0,498.0,499.0,500.0,508.0,517.0,514.0,511.0,502.0,492.0,483.0,474.0,482.0,491.0,496.0,501.0,499.0,497.0,492.0,486.0,485.0,484.0,488.0,493.0,501.0,510.0,516.0,522.0,527.0,533.0,535.0,537.0,538.0,540.0,535.0,529.0,518.0,507.0,489.0,471.0,468.0,465.0,482.0,500.0,512.0,524.0,524.0,525.0,520.0,514.0,510.0,506.0,509.0,512.0,517.0,523.0,522.0,521.0,517.0,513.0,507.0,501.0,508.0,515.0,520.0,526.0,531.0,536.0,544.0,553.0,559.0,566.0,567.0,569.0,568.0,566.0,565.0,564.0,563.0,562.0,560.0,557.0,555.0,552.0,548.0,543.0,540.0,536.0,532.0,527.0,523.0,519.0,516.0,512.0,512.0,512.0,507.0,501.0,499.0,497.0,497.0,496.0,498.0,500.0,501.0,502.0,500.0,498.0,495.0,491.0,490.0,489.0,489.0,489.0,485.0,480.0,477.0,474.0,473.0,471.0,470.0,469.0,466.0,462.0,460.0,457.0,456.0,454.0,453.0,451.0,451.0,452.0,452.0,451.0,454.0,458.0,461.0,464.0,464.0,464.0,468.0,473.0,478.0,483.0,486.0,490.0,494.0,499.0
548.0,535.0,522.0,514.0,506.0,508.0,510.0,521.0,533.0,531.0,528.0,510.0,491.0,485.0,478.0,483.0,488.0,490.0,492.0,492.0,492.0,489.0,486.0,488.0,490.0,494.0,499.0,508.0,517.0,523.0,530.0,534.0,539.0,539.0,538.0,538.0,538.0,533.0,528.0,514.0,499.0,484.0,468.0,467.0,466.0,485.0,505.0,518.0,531.0,533.0,536.0,534.0,531.0,528.0,524.0,527.0,531.0,536.0,542.0,542.0,543.0,539.0,534.0,524.0,513.0,516.0,519.0,526.0,534.0,540.0,547.0,554.0,561.0,566.0,571.0,572.0,574.0,573.0,572.0,570.0,567.0,566.0,565.0,561.0,556.0,554.0,551.0,549.0,547.0,542.0,536.0,530.0,524.0,522.0,520.0,520.0,519.0,519.0,519.0,515.0,511.0,510.0,509.0,509.0,509.0,509.0,510.0,510.0,509.0,505.0,500.0,497.0,493.0,492.0,490.0,488.0,486.0,482.0,478.0,477.0,476.0,473.0,470.0,469.0,468.0,467.0,465.0,462.0,459.0,458.0,456.0,456.0,455.0,456.0,457.0,456.0,454.0,454.0,454.0,459.0,464.0,465.0,466.0,469.0,472.0,480.0,489.0,494.0,499.0,502.0,505.0
576.0,564.0,551.0,544.0,537.0,532.0,526.0,529.0,533.0,534.0,536.0,517.0,497.0,495.0,493.0,497.0,502.0,502.0,502.0,498.0,493.0,492.0,490.0,491.0,492.0,497.0,502.0,508.0,514.0,519.0,525.0,527.0,530.0,529.0,527.0,524.0,520.0,516.0,511.0,501.0,491.0,480.0,468.0,463.0,458.0,473.0,489.0,505.0,521.0,528.0,536.0,537.0,538.0,538.0,537.0,542.0,547.0,551.0,555.0,557.0,559.0,555.0,550.0,544.0,537.0,529.0,521.0,526.0,531.0,540.0,549.0,558.0,567.0,572.0,577.0,578.0,579.0,576.0,573.0,572.0,571.0,570.0,568.0,564.0,559.0,556.0,552.0,551.0,549.0,545.0,541.0,541.0,541.0,537.0,533.0,529.0,524.0,520.0,516.0,518.0,520.0,520.0,521.0,522.0,523.0,521.0,518.0,518.0,517.0,514.0,510.0,504.0,497.0,495.0,492.0,489.0,486.0,483.0,480.0,480.0,479.0,477.0,475.0,474.0,472.0,470.0,468.0,465.0,461.0,460.0,458.0,459.0,461.0,461.0,461.0,458.0,455.0,460.0,465.0,466.0,468.0,470.0,472.0,472.0,472.0,478.0,484.0,491.0,499.0,503.0,507.0
588.0,582.0,576.0,574.0,572.0,565.0,557.0,551.0,545.0,539.0,532.0,517.0,501.0,502.0,504.0,516.0,528.0,525.0,521.0,513.0,504.0,501.0,498.0,498.0,499.0,501.0,504.0,506.0,508.0,512.0,516.0,516.0,516.0,513.0,509.0,506.0,502.0,495.0,488.0,483.0,478.0,472.0,465.0,460.0,455.0,463.0,472.0,486.0,501.0,510.0,519.0,521.0,524.0,526.0,529.0,537.0,545.0,552.0,559.0,562.0,565.0,562.0,558.0,552.0,546.0,541.0,536.0,539.0,542.0,548.0,555.0,561.0,567.0,572.0,577.0,578.0,579.0,577.0,575.0,575.0,574.0,573.0,572.0,566.0,560.0,559.0,557.0,557.0,558.0,556.0,554.0,553.0,551.0,546.0,540.0,535.0,529.0,524.0,518.0,524.0,530.0,531.0,532.0,531.0,529.0,529.0,528.0,528.0,528.0,524.0,519.0,511.0,503.0,500.0,497.0,494.0,490.0,489.0,487.0,486.0,484.0,483.0,481.0,478.0,475.0,473.0,470.0,468.0,466.0,466.0,466.0,466.0,467.0,464.0,460.0,461.0,462.0,467.0,473.0,473.0,472.0,475.0,479.0,479.0,480.0,480.0,479.0,486.0,493.0,500.0,507.0
602.0,599.0,596.0,594.0,592.0,591.0,589.0,584.0,578.0,566.0,553.0,537.0,521.0,514.0,506.0,511.0,516.0,520.0,525.0,521.0,516.0,517.0,518.0,514.0,509.0,511.0,513.0,513.0,513.0,512.0,510.0,506.0,501.0,495.0,489.0,485.0,481.0,477.0,472.0,470.0,467.0,464.0,460.0,459.0,458.0,459.0,460.0,471.0,483.0,490.0,498.0,500.0,502.0,507.0,512.0,521.0,530.0,538.0,546.0,552.0,558.0,556.0,554.0,548.0,542.0,544.0,547.0,551.0,555.0,556.0,558.0,560.0,563.0,566.0,569.0,570.0,571.0,571.0,571.0,570.0,568.0,566.0,564.0,561.0,558.0,559.0,561.0,563.0,566.0,566.0,567.0,564.0,561.0,556.0,551.0,548.0,545.0,542.0,538.0,539.0,541.0,540.0,539.0,536.0,533.0,532.0,531.0,529.0,527.0,523.0,519.0,514.0,508.0,505.0,501.0,499.0,497.0,495.0,493.0,491.0,489.0,487.0,484.0,481.0,477.0,474.0,471.0,471.0,472.0,473.0,475.0,472.0,469.0,465.0,460.0,463.0,466.0,472.0,478.0,478.0,478.0,481.0,484.0,485.0,487.0,486.0,484.0,489.0,494.0,501.0,509.0
635.0,633.0,631.0,627.0,622.0,619.0,615.0,609.0,603.0,585.0,566.0,557.0,548.0,547.0,546.0,537.0,528.0,527.0,526.0,526.0,526.0,526.0,527.0,523.0,518.0,527.0,536.0,530.0,523.0,518.0,512.0,506.0,499.0,494.0,488.0,483.0,478.0,474.0,470.0,468.0,465.0,463.0,460.0,462.0,464.0,462.0,460.0,462.0,464.0,469.0,475.0,479.0,484.0,488.0,493.0,500.0,508.0,515.0,523.0,530.0,538.0,538.0,537.0,534.0,531.0,538.0,545.0,547.0,550.0,550.0,550.0,552.0,555.0,558.0,562.0,565.0,568.0,569.0,570.0,567.0,564.0,560.0,555.0,555.0,556.0,560.0,564.0,567.0,571.0,572.0,574.0,573.0,571.0,569.0,566.0,562.0,558.0,557.0,555.0,554.0,552.0,550.0,547.0,544.0,540.0,538.0,536.0,532.0,528.0,526.0,523.0,520.0,516.0,514.0,511.0,508.0,505.0,503.0,500.0,498.0,495.0,491.0,487.0,483.0,479.0,478.0,477.0,478.0,480.0,479.0,478.0,477.0,475.0,470.0,465.0,465.0,466.0,473.0,480.0,481.0,483.0,486.0,489.0,491.0,493.0,493.0,492.0,494.0,497.0,502.0,508.0
658.0,657.0,655.0,649.0,642.0,633.0,623.0,607.0,591.0,580.0,569.0,572.0,575.0,573.0,571.0,565.0,559.0,559.0,558.0,558.0,558.0,550.0,541.0,534.0,527.0,535.0,544.0,545.0,546.0,539.0,531.0,524.0,517.0,513.0,508.0,506.0,503.0,496.0,489.0,483.0,476.0,479.0,483.0,482.0,481.0,474.0,466.0,465.0,463.0,464.0,465.0,466.0,467.0,470.0,473.0,476.0,479.0,487.0,496.0,504.0,513.0,513.0,513.0,522.0,531.0,533.0,535.0,535.0,534.0,538.0,543.0,543.0,544.0,549.0,555.0,559.0,564.0,564.0,565.0,563.0,560.0,556.0,551.0,550.0,548.0,552.0,557.0,564.0,571.0,573.0,576.0,576.0,575.0,573.0,570.0,568.0,565.0,564.0,562.0,561.0,559.0,557.0,555.0,553.0,550.0,547.0,543.0,540.0,536.0,533.0,529.0,528.0,526.0,523.0,520.0,516.0,512.0,508.0,503.0,500.0,497.0,493.0,489.0,488.0,486.0,486.0,485.0,485.0,486.0,485.0,484.0,482.0,480.0,476.0,472.0,468.0,463.0,472.0,482.0,485.0,488.0,491.0,494.0,497.0,500.0,497.0,493.0,496.0,499.0,503.0,508.0
681.0,677.0,672.0,659.0,646.0,627.0,607.0,591.0,575.0,583.0,591.0,599.0,607.0,603.0,598.0,593.0,588.0,591.0,594.0,595.0,596.0,587.0,578.0,562.0,545.0,550.0,555.0,551.0,546.0,541.0,536.0,531.0,526.0,521.0,516.0,510.0,503.0,497.0,490.0,495.0,500.0,509.0,518.0,515.0,512.0,498.0,483.0,477.0,471.0,472.0,473.0,471.0,469.0,470.0,472.0,471.0,470.0,472.0,474.0,480.0,487.0,495.0,503.0,513.0,524.0,522.0,520.0,520.0,519.0,524.0,530.0,531.0,533.0,541.0,549.0,553.0,557.0,558.0,559.0,558.0,556.0,552.0,547.0,545.0,542.0,547.0,552.0,558.0,564.0,564.0,565.0,566.0,568.0,567.0,565.0,564.0,562.0,562.0,561.0,561.0,561.0,561.0,560.0,557.0,554.0,551.0,548.0,545.0,542.0,540.0,538.0,535.0,532.0,529.0,526.0,521.0,515.0,509.0,503.0,500.0,497.0,497.0,496.0,496.0,495.0,494.0,493.0,492.0,490.0,490.0,489.0,487.0,485.0,480.0,475.0,470.0,465.0,470.0,476.0,482.0,488.0,492.0,496.0,497.0,499.0,494.0,489.0,491.0,493.0,501.0,509.0
695.0,687.0,678.0,658.0,638.0,617.0,596.0,596.0,596.0,608.0,620.0,624.0,629.0,623.0,616.0,618.0,621.0,621.0,621.0,620.0,619.0,608.0,596.0,582.0,568.0,573.0,578.0,568.0,558.0,546.0,533.0,523.0,513.0,507.0,501.0,496.0,491.0,489.0,487.0,497.0,507.0,514.0,521.0,517.0,512.0,501.0,489.0,490.0,491.0,497.0,504.0,498.0,492.0,490.0,487.0,488.0,489.0,486.0,482.0,481.0,479.0,482.0,486.0,491.0,496.0,499.0,502.0,503.0,505.0,509.0,513.0,520.0,527.0,535.0,543.0,547.0,552.0,553.0,554.0,553.0,551.0,547.0,543.0,540.0,536.0,540.0,545.0,549.0,553.0,553.0,553.0,555.0,558.0,557.0,556.0,554.0,552.0,552.0,553.0,555.0,557.0,557.0,556.0,555.0,553.0,550.0,547.0,545.0,542.0,541.0,539.0,537.0,534.0,532.0,529.0,523.0,516.0,512.0,508.0,507.0,506.0,506.0,505.0,504.0,502.0,500.0,498.0,497.0,496.0,495.0,494.0,491.0,488.0,484.0,480.0,477.0,473.0,473.0,474.0,480.0,486.0,490.0,495.0,495.0,494.0,492.0,490.0,490.0,490.0,499.0,508.0
702.0,689.0,675.0,653.0,630.0,613.0,596.0,609.0,622.0,632.0,642.0,644.0,646.0,643.0,640.0,644.0,649.0,647.0,645.0,638.0,631.0,618.0,605.0,592.0,579.0,590.0,602.0,597.0,592.0,580.0,567.0,556.0,544.0,539.0,533.0,522.0,511.0,507.0,503.0,507.0,512.0,520.0,528.0,528.0,529.0,525.0,521.0,514.0,507.0,510.0,514.0,509.0,504.0,503.0,502.0,503.0,505.0,501.0,496.0,491.0,485.0,489.0,493.0,493.0,493.0,491.0,488.0,491.0,494.0,497.0,501.0,511.0,522.0,529.0,537.0,541.0,545.0,547.0,550.0,548.0,545.0,542.0,538.0,534.0,530.0,533.0,536.0,538.0,541.0,542.0,544.0,547.0,551.0,550.0,548.0,543.0,538.0,540.0,542.0,545.0,548.0,548.0,547.0,546.0,545.0,543.0,540.0,539.0,538.0,538.0,539.0,537.0,535.0,532.0,528.0,525.0,522.0,520.0,518.0,518.0,517.0,516.0,514.0,513.0,511.0,509.0,506.0,505.0,503.0,500.0,497.0,492.0,486.0,482.0,478.0,477.0,476.0,476.0,476.0,481.0,486.0,486.0,487.0,489.0,491.0,495.0,499.0,501.0,503.0,506.0,510.0
711.0,698.0,684.0,661.0,638.0,622.0,605.0,624.0,644.0,653.0,663.0,662.0,661.0,663.0,665.0,668.0,672.0,667.0,661.0,650.0,638.0,620.0,602.0,599.0,595.0,608.0,621.0,617.0,613.0,603.0,593.0,587.0,580.0,577.0,573.0,561.0,549.0,545.0,541.0,536.0,531.0,536.0,541.0,543.0,546.0,552.0,559.0,549.0,539.0,538.0,537.0,538.0,539.0,538.0,536.0,536.0,536.0,532.0,527.0,518.0,509.0,506.0,502.0,505.0,509.0,506.0,502.0,499.0,496.0,497.0,499.0,505.0,512.0,521.0,530.0,533.0,537.0,539.0,541.0,539.0,537.0,534.0,531.0,528.0,525.0,525.0,526.0,528.0,531.0,535.0,539.0,542.0,546.0,545.0,544.0,537.0,529.0,528.0,526.0,529.0,532.0,533.0,535.0,535.0,535.0,532.0,528.0,530.0,532.0,534.0,537.0,534.0,531.0,531.0,530.0,529.0,528.0,527.0,526.0,524.0,522.0,520.0,518.0,517.0,516.0,514.0,511.0,509.0,506.0,501.0,495.0,489.0,483.0,481.0,478.0,480.0,482.0,484.0,487.0,488.0,490.0,485.0,480.0,482.0,485.0,493.0,501.0,505.0,510.0,514.0,518.0
723.0,708.0,692.0,672.0,651.0,632.0,612.0,633.0,655.0,671.0,687.0,683.0,678.0,680.0,682.0,684.0,686.0,677.0,668.0,653.0,637.0,620.0,602.0,610.0,618.0,629.0,640.0,636.0,632.0,626.0,619.0,616.0,612.0,604.0,595.0,588.0,581.0,574.0,567.0,566.0,564.0,569.0,574.0,569.0,564.0,571.0,579.0,579.0,578.0,575.0,571.0,575.0,579.0,577.0,575.0,574.0,573.0,570.0,566.0,561.0,555.0,541.0,527.0,520.0,513.0,514.0,515.0,511.0,507.0,503.0,498.0,501.0,505.0,513.0,521.0,526.0,531.0,531.0,532.0,531.0,529.0,527.0,525.0,523.0,521.0,520.0,518.0,523.0,528.0,533.0,538.0,541.0,544.0,541.0,537.0,533.0,528.0,523.0,518.0,520.0,522.0,523.0,525.0,525.0,526.0,524.0,521.0,523.0,526.0,527.0,529.0,528.0,526.0,527.0,528.0,529.0,530.0,529.0,528.0,527.0,525.0,523.0,521.0,519.0,517.0,515.0,513.0,509.0,505.0,499.0,492.0,488.0,483.0,484.0,486.0,491.0,497.0,496.0,494.0,493.0,491.0,489.0,486.0,486.0,487.0,497.0,508.0,513.0,518.0,521.0,525.0
734.0,715.0,696.0,679.0,662.0,645.0,628.0,647.0,666.0,685.0,704.0,704.0,703.0,699.0,695.0,692.0,688.0,677.0,666.0,646.0,626.0,621.0,615.0,629.0,644.0,654.0,664.0,661.0,657.0,651.0,645.0,637.0,628.0,622.0,615.0,610.0,604.0,591.0,578.0,585.0,592.0,596.0,601.0,599.0,597.0,597.0,598.0,603.0,608.0,608.0,609.0,609.0,608.0,607.0,606.0,603.0,599.0,593.0,587.0,582.0,576.0,571.0,566.0,555.0,543.0,533.0,522.0,516.0,510.0,505.0,500.0,503.0,506.0,513.0,520.0,524.0,528.0,527.0,526.0,524.0,522.0,521.0,519.0,518.0,516.0,516.0,516.0,522.0,529.0,534.0,539.0,540.0,542.0,539.0,536.0,531.0,526.0,521.0,515.0,513.0,511.0,512.0,514.0,515.0,516.0,514.0,511.0,515.0,519.0,519.0,519.0,519.0,519.0,520.0,521.0,522.0,523.0,524.0,525.0,525.0,525.0,522.0,518.0,516.0,514.0,513.0,512.0,510.0,508.0,503.0,498.0,496.0,493.0,492.0,491.0,490.0,489.0,491.0,493.0,493.0,494.0,496.0,498.0,500.0,502.0,507.0,512.0,518.0,525.0,527.0,530.0
735.0,718.0,701.0,689.0,677.0,665.0,652.0,668.0,684.0,701.0,719.0,720.0,722.0,721.0,719.0,704.0,689.0,675.0,660.0,642.0,624.0,626.0,629.0,646.0,664.0,674.0,685.0,683.0,681.0,672.0,663.0,652.0,641.0,636.0,631.0,624.0,616.0,606.0,595.0,607.0,620.0,624.0,629.0,629.0,630.0,627.0,623.0,624.0,626.0,625.0,623.0,621.0,618.0,616.0,613.0,606.0,598.0,592.0,585.0,577.0,569.0,567.0,565.0,564.0,562.0,548.0,533.0,521.0,508.0,506.0,504.0,506.0,508.0,513.0,518.0,521.0,524.0,524.0,523.0,523.0,522.0,520.0,517.0,515.0,512.0,513.0,514.0,519.0,525.0,529.0,533.0,533.0,533.0,532.0,530.0,526.0,522.0,519.0,515.0,512.0,508.0,506.0,503.0,503.0,504.0,504.0,505.0,506.0,508.0,509.0,510.0,510.0,510.0,512.0,514.0,515.0,516.0,517.0,519.0,520.0,521.0,519.0,517.0,518.0,520.0,516.0,512.0,512.0,511.0,509.0,507.0,502.0,496.0,494.0,491.0,490.0,489.0,490.0,491.0,491.0,492.0,494.0,496.0,503.0,510.0,513.0,516.0,522.0,529.0,531.0,533.0
738.0,725.0,712.0,703.0,694.0,684.0,674.0,687.0,701.0,714.0,728.0,730.0,733.0,728.0,723.0,706.0,688.0,673.0,658.0,647.0,636.0,639.0,642.0,656.0,671.0,685.0,700.0,699.0,697.0,688.0,678.0,670.0,661.0,657.0,653.0,643.0,632.0,625.0,618.0,630.0,642.0,646.0,651.0,650.0,648.0,645.0,641.0,638.0,634.0,630.0,625.0,621.0,617.0,612.0,607.0,604.0,601.0,600.0,598.0,589.0,579.0,572.0,564.0,556.0,548.0,538.0,528.0,524.0,520.0,516.0,512.0,511.0,510.0,512.0,515.0,518.0,522.0,523.0,524.0,524.0,523.0,520.0,517.0,515.0,512.0,512.0,511.0,513.0,516.0,518.0,520.0,520.0,521.0,521.0,521.0,520.0,518.0,514.0,510.0,506.0,501.0,499.0,497.0,497.0,497.0,497.0,497.0,497.0,497.0,497.0,498.0,498.0,499.0,499.0,500.0,503.0,507.0,508.0,510.0,512.0,515.0,517.0,519.0,519.0,518.0,515.0,512.0,511.0,510.0,509.0,508.0,505.0,501.0,498.0,495.0,494.0,493.0,490.0,486.0,487.0,489.0,495.0,501.0,504.0,508.0,511.0,515.0,523.0,532.0,534.0,536.0
744.0,731.0,718.0,712.0,705.0,702.0,698.0,705.0,713.0,722.0,732.0,735.0,738.0,731.0,723.0,709.0,695.0,680.0,664.0,660.0,656.0,654.0,652.0,663.0,675.0,688.0,702.0,704.0,707.0,702.0,696.0,690.0,683.0,673.0,663.0,650.0,636.0,636.0,637.0,649.0,661.0,663.0,666.0,663.0,660.0,654.0,647.0,643.0,639.0,636.0,632.0,629.0,625.0,621.0,616.0,615.0,613.0,613.0,614.0,609.0,604.0,594.0,583.0,570.0,556.0,549.0,542.0,540.0,537.0,529.0,520.0,517.0,514.0,514.0,515.0,517.0,519.0,520.0,522.0,522.0,521.0,519.0,517.0,515.0,512.0,510.0,508.0,508.0,508.0,508.0,508.0,509.0,510.0,512.0,514.0,513.0,511.0,506.0,501.0,499.0,497.0,496.0,495.0,494.0,492.0,492.0,492.0,492.0,492.0,492.0,491.0,491.0,492.0,492.0,493.0,494.0,496.0,499.0,502.0,505.0,508.0,510.0,513.0,513.0,513.0,512.0,510.0,510.0,510.0,510.0,509.0,507.0,505.0,501.0,496.0,494.0,491.0,488.0,485.0,485.0,486.0,493.0,501.0,505.0,509.0,511.0,514.0,522.0,531.0,534.0,537.0
751.0,741.0,731.0,724.0,716.0,716.0,716.0,720.0,724.0,731.0,739.0,742.0,746.0,738.0,729.0,718.0,707.0,697.0,687.0,682.0,676.0,673.0,669.0,674.0,680.0,690.0,701.0,707.0,714.0,713.0,712.0,705.0,698.0,687.0,676.0,664.0,651.0,652.0,654.0,664.0,675.0,676.0,677.0,672.0,666.0,658.0,649.0,648.0,646.0,644.0,642.0,638.0,634.0,632.0,630.0,630.0,631.0,633.0,635.0,633.0,630.0,622.0,614.0,598.0,581.0,569.0,557.0,551.0,545.0,540.0,534.0,531.0,527.0,525.0,523.0,523.0,522.0,523.0,525.0,524.0,523.0,521.0,519.0,517.0,514.0,512.0,509.0,508.0,506.0,505.0,503.0,503.0,504.0,504.0,504.0,502.0,500.0,500.0,499.0,499.0,500.0,498.0,495.0,492.0,488.0,488.0,487.0,488.0,490.0,489.0,487.0,487.0,488.0,489.0,490.0,491.0,493.0,494.0,496.0,498.0,500.0,502.0,505.0,506.0,508.0,508.0,509.0,510.0,512.0,512.0,511.0,510.0,509.0,507.0,505.0,501.0,497.0,491.0,485.0,488.0,491.0,498.0,505.0,509.0,514.0,514.0,513.0,519.0,525.0,530.0,536.0
757.0,750.0,742.0,737.0,732.0,735.0,738.0,740.0,742.0,747.0,752.0,751.0,749.0,744.0,739.0,730.0,720.0,712.0,704.0,698.0,692.0,690.0,687.0,691.0,696.0,700.0,705.0,710.0,715.0,716.0,718.0,711.0,704.0,691.0,678.0,669.0,660.0,661.0,663.0,671.0,680.0,682.0,684.0,677.0,670.0,662.0,654.0,656.0,659.0,656.0,652.0,650.0,648.0,647.0,645.0,646.0,648.0,650.0,652.0,648.0,644.0,637.0,629.0,618.0,607.0,595.0,582.0,568.0,554.0,549.0,543.0,541.0,538.0,534.0,529.0,529.0,528.0,529.0,530.0,529.0,527.0,524.0,520.0,518.0,515.0,514.0,512.0,511.0,509.0,507.0,505.0,503.0,501.0,500.0,499.0,499.0,498.0,498.0,497.0,497.0,497.0,495.0,493.0,491.0,489.0,489.0,489.0,489.0,488.0,487.0,485.0,485.0,484.0,486.0,488.0,490.0,493.0,493.0,494.0,494.0,493.0,494.0,496.0,498.0,500.0,503.0,506.0,508.0,511.0,511.0,512.0,512.0,511.0,510.0,508.0,507.0,506.0,498.0,490.0,494.0,498.0,501.0,505.0,509.0,514.0,514.0,515.0,518.0,522.0,529.0,537.0
766.0,761.0,755.0,751.0,746.0,749.0,752.0,756.0,761.0,762.0,764.0,760.0,756.0,753.0,749.0,742.0,735.0,728.0,720.0,713.0,705.0,703.0,701.0,709.0,717.0,718.0,720.0,718.0,716.0,716.0,716.0,706.0,696.0,688.0,679.0,673.0,666.0,671.0,677.0,682.0,688.0,691.0,694.0,687.0,680.0,676.0,671.0,671.0,672.0,669.0,665.0,663.0,661.0,661.0,662.0,664.0,666.0,667.0,668.0,664.0,659.0,647.0,635.0,623.0,611.0,599.0,587.0,573.0,559.0,552.0,545.0,544.0,542.0,541.0,540.0,539.0,537.0,537.0,536.0,533.0,529.0,526.0,523.0,521.0,519.0,519.0,518.0,516.0,513.0,510.0,506.0,503.0,500.0,499.0,498.0,498.0,497.0,497.0,497.0,496.0,495.0,493.0,491.0,491.0,490.0,490.0,489.0,489.0,488.0,487.0,486.0,486.0,485.0,486.0,487.0,489.0,491.0,489.0,487.0,487.0,486.0,487.0,488.0,490.0,493.0,497.0,501.0,503.0,506.0,507.0,509.0,509.0,508.0,507.0,506.0,506.0,507.0,506.0,504.0,503.0,502.0,503.0,505.0,506.0,508.0,510.0,512.0,518.0,525.0,531.0,538.0
773.0,770.0,767.0,762.0,756.0,761.0,766.0,772.0,778.0,777.0,776.0,772.0,768.0,764.0,759.0,754.0,749.0,741.0,733.0,725.0,716.0,715.0,714.0,722.0,731.0,734.0,737.0,733.0,729.0,727.0,725.0,715.0,704.0,692.0,680.0,677.0,673.0,680.0,687.0,691.0,696.0,700.0,704.0,700.0,696.0,692.0,687.0,687.0,686.0,684.0,681.0,679.0,676.0,677.0,678.0,680.0,682.0,682.0,682.0,675.0,667.0,647.0,627.0,610.0,593.0,584.0,575.0,566.0,556.0,552.0,547.0,549.0,551.0,551.0,551.0,550.0,548.0,544.0,540.0,537.0,533.0,530.0,527.0,526.0,524.0,524.0,523.0,520.0,516.0,512.0,508.0,506.0,504.0,503.0,502.0,501.0,499.0,499.0,498.0,497.0,495.0,494.0,493.0,492.0,491.0,491.0,490.0,490.0,489.0,489.0,488.0,487.0,485.0,486.0,487.0,485.0,483.0,483.0,482.0,482.0,482.0,482.0,483.0,485.0,488.0,490.0,493.0,495.0,498.0,498.0,499.0,500.0,501.0,501.0,501.0,502.0,503.0,503.0,502.0,502.0,501.0,503.0,505.0,507.0,510.0,511.0,513.0,520.0,527.0,532.0,537.0
774.0,771.0,768.0,771.0,774.0,780.0,786.0,787.0,788.0,788.0,789.0,787.0,784.0,779.0,774.0,767.0,760.0,753.0,745.0,737.0,729.0,729.0,730.0,734.0,739.0,743.0,748.0,748.0,748.0,746.0,743.0,732.0,721.0,705.0,689.0,686.0,682.0,687.0,693.0,697.0,701.0,705.0,710.0,706.0,702.0,699.0,696.0,695.0,693.0,693.0,694.0,693.0,691.0,692.0,694.0,695.0,696.0,695.0,694.0,683.0,672.0,645.0,617.0,600.0,582.0,575.0,567.0,563.0,558.0,561.0,564.0,565.0,566.0,566.0,565.0,563.0,561.0,555.0,548.0,545.0,541.0,540.0,538.0,535.0,531.0,529.0,526.0,523.0,519.0,515.0,511.0,510.0,509.0,508.0,506.0,505.0,504.0,502.0,500.0,498.0,496.0,495.0,494.0,493.0,491.0,490.0,489.0,489.0,489.0,489.0,488.0,487.0,486.0,486.0,486.0,484.0,481.0,481.0,480.0,480.0,481.0,482.0,483.0,483.0,484.0,485.0,487.0,489.0,491.0,492.0,494.0,495.0,496.0,497.0,498.0,500.0,502.0,502.0,501.0,500.0,499.0,500.0,502.0,506.0,510.0,511.0,513.0,519.0,525.0,529.0,534.0
783.0,780.0,776.0,782.0,788.0,791.0,795.0,796.0,798.0,798.0,797.0,796.0,794.0,792.0,789.0,780.0,770.0,763.0,756.0,749.0,742.0,740.0,737.0,740.0,744.0,749.0,754.0,759.0,764.0,761.0,757.0,744.0,731.0,719.0,706.0,699.0,691.0,692.0,694.0,699.0,705.0,708.0,712.0,709.0,706.0,705.0,703.0,701.0,699.0,699.0,699.0,699.0,699.0,701.0,703.0,704.0,705.0,701.0,696.0,685.0,673.0,649.0,624.0,607.0,590.0,589.0,587.0,585.0,583.0,582.0,581.0,582.0,584.0,586.0,589.0,589.0,589.0,581.0,572.0,564.0,556.0,552.0,548.0,544.0,540.0,536.0,532.0,528.0,524.0,521.0,518.0,516.0,514.0,513.0,511.0,509.0,507.0,504.0,501.0,499.0,496.0,495.0,494.0,493.0,492.0,491.0,489.0,489.0,488.0,488.0,488.0,487.0,485.0,484.0,482.0,481.0,479.0,479.0,480.0,480.0,480.0,480.0,480.0,480.0,480.0,481.0,483.0,485.0,487.0,487.0,488.0,488.0,489.0,492.0,495.0,497.0,499.0,497.0,495.0,495.0,495.0,500.0,505.0,508.0,512.0,512.0,513.0,518.0,523.0,528.0,533.0
790.0,791.0,792.0,795.0,798.0,799.0,801.0,802.0,803.0,802.0,801.0,801.0,800.0,797.0,793.0,786.0,779.0,771.0,763.0,758.0,752.0,749.0,745.0,748.0,752.0,757.0,763.0,768.0,774.0,770.0,765.0,752.0,739.0,728.0,717.0,706.0,694.0,693.0,691.0,697.0,703.0,705.0,708.0,708.0,708.0,709.0,711.0,711.0,711.0,707.0,703.0,702.0,701.0,704.0,707.0,707.0,707.0,703.0,699.0,688.0,677.0,661.0,645.0,630.0,615.0,608.0,601.0,600.0,598.0,598.0,598.0,600.0,602.0,606.0,611.0,611.0,611.0,607.0,602.0,590.0,578.0,569.0,560.0,556.0,551.0,545.0,539.0,534.0,529.0,525.0,521.0,519.0,517.0,516.0,514.0,512.0,509.0,506.0,502.0,499.0,496.0,495.0,494.0,492.0,490.0,489.0,488.0,488.0,488.0,489.0,490.0,488.0,485.0,483.0,480.0,480.0,479.0,479.0,480.0,480.0,479.0,479.0,479.0,479.0,479.0,479.0,479.0,480.0,481.0,483.0,485.0,485.0,486.0,489.0,492.0,496.0,500.0,499.0,498.0,497.0,496.0,499.0,503.0,504.0,506.0,506.0,507.0,512.0,518.0,523.0,529.0
793.0,797.0,801.0,802.0,804.0,805.0,807.0,807.0,806.0,805.0,804.0,803.0,802.0,798.0,794.0,788.0,781.0,772.0,762.0,756.0,750.0,751.0,752.0,754.0,757.0,762.0,767.0,770.0,774.0,771.0,768.0,756.0,744.0,732.0,719.0,703.0,686.0,681.0,676.0,688.0,701.0,702.0,704.0,706.0,709.0,710.0,711.0,710.0,709.0,706.0,703.0,702.0,701.0,703.0,706.0,708.0,711.0,709.0,706.0,699.0,691.0,678.0,664.0,650.0,635.0,626.0,616.0,615.0,613.0,614.0,616.0,617.0,619.0,620.0,621.0,621.0,622.0,616.0,610.0,603.0,596.0,589.0,581.0,573.0,564.0,555.0,546.0,540.0,533.0,529.0,524.0,522.0,519.0,517.0,514.0,510.0,506.0,504.0,501.0,500.0,498.0,496.0,493.0,493.0,493.0,492.0,490.0,490.0,490.0,490.0,489.0,486.0,483.0,481.0,479.0,480.0,481.0,481.0,481.0,481.0,480.0,480.0,480.0,479.0,478.0,477.0,476.0,477.0,478.0,478.0,479.0,480.0,482.0,483.0,485.0,491.0,497.0,497.0,498.0,496.0,494.0,496.0,498.0,499.0,500.0,501.0,503.0,508.0,514.0,518.0,522.0
790.0,796.0,802.0,805.0,808.0,808.0,808.0,808.0,807.0,806.0,804.0,802.0,799.0,792.0,784.0,778.0,771.0,763.0,754.0,752.0,749.0,750.0,752.0,754.0,757.0,757.0,756.0,758.0,760.0,760.0,759.0,749.0,738.0,724.0,709.0,689.0,669.0,663.0,656.0,672.0,689.0,694.0,700.0,703.0,706.0,701.0,696.0,692.0,688.0,686.0,684.0,685.0,686.0,691.0,697.0,701.0,706.0,708.0,711.0,706.0,701.0,690.0,678.0,661.0,644.0,635.0,625.0,624.0,623.0,623.0,623.0,621.0,618.0,618.0,619.0,621.0,624.0,620.0,616.0,612.0,607.0,601.0,594.0,586.0,578.0,566.0,554.0,547.0,540.0,533.0,525.0,522.0,519.0,516.0,512.0,508.0,504.0,501.0,498.0,496.0,493.0,493.0,492.0,492.0,491.0,490.0,488.0,488.0,488.0,486.0,484.0,482.0,479.0,479.0,478.0,476.0,473.0,475.0,477.0,478.0,480.0,479.0,478.0,478.0,474.0,476.0,476.0,477.0,478.0,478.0,478.0,479.0,481.0,483.0,485.0,491.0,497.0,498.0,499.0,494.0,488.0,488.0,488.0,487.0,486.0,488.0,491.0,498.0,505.0,508.0,511.0
788.0,792.0,796.0,800.0,804.0,805.0,807.0,805.0,803.0,800.0,797.0,795.0,792.0,783.0,774.0,767.0,759.0,753.0,746.0,744.0,741.0,743.0,745.0,745.0,745.0,743.0,740.0,740.0,741.0,739.0,737.0,725.0,713.0,699.0,684.0,666.0,647.0,647.0,648.0,661.0,674.0,677.0,681.0,682.0,684.0,677.0,669.0,666.0,662.0,659.0,656.0,656.0,657.0,663.0,670.0,675.0,680.0,685.0,691.0,691.0,690.0,677.0,663.0,647.0,631.0,627.0,622.0,621.0,619.0,617.0,614.0,610.0,606.0,605.0,604.0,609.0,614.0,617.0,621.0,617.0,612.0,609.0,605.0,603.0,600.0,585.0,569.0,557.0,544.0,537.0,530.0,523.0,516.0,512.0,507.0,504.0,500.0,498.0,496.0,492.0,488.0,487.0,485.0,485.0,484.0,483.0,482.0,482.0,482.0,480.0,477.0,477.0,477.0,477.0,478.0,478.0,479.0,479.0,478.0,477.0,475.0,474.0,472.0,470.0,468.0,472.0,477.0,477.0,478.0,478.0,479.0,483.0,487.0,488.0,489.0,493.0,497.0,497.0,498.0,492.0,486.0,483.0,480.0,479.0,477.0,477.0,478.0,485.0,493.0,496.0,499.0
775.0,779.0,783.0,789.0,796.0,797.0,799.0,797.0,794.0,792.0,789.0,784.0,778.0,770.0,762.0,753.0,744.0,735.0,726.0,723.0,720.0,722.0,725.0,724.0,722.0,719.0,716.0,715.0,714.0,712.0,709.0,699.0,688.0,675.0,662.0,645.0,627.0,626.0,624.0,637.0,650.0,651.0,652.0,651.0,649.0,646.0,642.0,638.0,634.0,631.0,627.0,625.0,623.0,629.0,635.0,640.0,645.0,653.0,661.0,661.0,660.0,650.0,639.0,628.0,617.0,613.0,609.0,609.0,608.0,604.0,599.0,595.0,591.0,589.0,586.0,593.0,600.0,608.0,616.0,617.0,619.0,618.0,616.0,616.0,617.0,605.0,592.0,572.0,552.0,541.0,530.0,522.0,514.0,508.0,502.0,498.0,494.0,492.0,489.0,486.0,483.0,481.0,479.0,479.0,479.0,478.0,477.0,478.0,479.0,477.0,475.0,475.0,475.0,475.0,475.0,475.0,476.0,476.0,475.0,475.0,475.0,476.0,478.0,477.0,476.0,477.0,478.0,478.0,479.0,481.0,484.0,487.0,490.0,492.0,495.0,495.0,496.0,495.0,494.0,491.0,488.0,485.0,481.0,479.0,476.0,475.0,473.0,477.0,481.0,484.0,488.0
763.0,770.0,777.0,782.0,787.0,787.0,788.0,785.0,782.0,782.0,783.0,776.0,769.0,762.0,755.0,748.0,740.0,722.0,703.0,699.0,694.0,696.0,698.0,696.0,693.0,689.0,684.0,682.0,679.0,676.0,673.0,665.0,657.0,645.0,632.0,619.0,606.0,603.0,599.0,608.0,617.0,619.0,622.0,620.0,618.0,616.0,614.0,611.0,607.0,607.0,608.0,603.0,598.0,605.0,613.0,618.0,624.0,630.0,636.0,635.0,633.0,630.0,626.0,619.0,612.0,604.0,595.0,593.0,591.0,588.0,584.0,579.0,573.0,570.0,567.0,576.0,585.0,592.0,599.0,602.0,606.0,603.0,599.0,599.0,599.0,597.0,594.0,579.0,563.0,550.0,537.0,526.0,514.0,507.0,499.0,494.0,489.0,487.0,484.0,482.0,480.0,480.0,479.0,479.0,479.0,478.0,477.0,477.0,476.0,475.0,473.0,473.0,473.0,473.0,474.0,475.0,477.0,478.0,479.0,479.0,478.0,478.0,477.0,477.0,477.0,478.0,479.0,481.0,484.0,486.0,489.0,492.0,495.0,499.0,504.0,503.0,502.0,499.0,495.0,492.0,489.0,486.0,482.0,479.0,475.0,472.0,469.0,470.0,472.0,474.0,477.0
758.0,764.0,770.0,776.0,783.0,785.0,787.0,782.0,776.0,775.0,774.0,769.0,764.0,759.0,754.0,739.0,723.0,704.0,684.0,675.0,666.0,668.0,671.0,667.0,662.0,656.0,650.0,647.0,644.0,639.0,633.0,627.0,621.0,612.0,603.0,597.0,590.0,582.0,574.0,583.0,593.0,594.0,595.0,590.0,584.0,582.0,580.0,579.0,578.0,581.0,584.0,581.0,577.0,583.0,590.0,597.0,604.0,606.0,608.0,602.0,595.0,598.0,602.0,599.0,596.0,587.0,578.0,575.0,572.0,570.0,568.0,563.0,557.0,555.0,552.0,556.0,561.0,567.0,573.0,575.0,577.0,573.0,568.0,570.0,572.0,571.0,570.0,565.0,560.0,551.0,541.0,526.0,511.0,500.0,489.0,486.0,483.0,482.0,480.0,480.0,479.0,479.0,478.0,478.0,477.0,477.0,477.0,476.0,475.0,474.0,472.0,473.0,474.0,474.0,474.0,476.0,479.0,479.0,479.0,479.0,478.0,478.0,478.0,478.0,479.0,481.0,484.0,487.0,491.0,493.0,496.0,498.0,501.0,504.0,507.0,509.0,511.0,507.0,502.0,497.0,491.0,487.0,482.0,478.0,474.0,472.0,469.0,468.0,467.0,467.0,466.0
745.0,755.0,765.0,772.0,779.0,781.0,783.0,778.0,772.0,769.0,766.0,764.0,762.0,755.0,747.0,726.0,704.0,685.0,665.0,654.0,643.0,642.0,641.0,636.0,630.0,623.0,616.0,614.0,611.0,608.0,604.0,600.0,596.0,588.0,580.0,574.0,567.0,561.0,555.0,558.0,562.0,561.0,560.0,555.0,550.0,548.0,545.0,548.0,551.0,553.0,555.0,555.0,554.0,557.0,561.0,566.0,572.0,575.0,579.0,572.0,565.0,568.0,571.0,570.0,568.0,561.0,554.0,552.0,549.0,549.0,548.0,546.0,544.0,540.0,536.0,536.0,536.0,538.0,540.0,541.0,543.0,539.0,534.0,537.0,541.0,541.0,542.0,542.0,542.0,531.0,519.0,508.0,497.0,491.0,484.0,483.0,481.0,481.0,480.0,480.0,479.0,479.0,478.0,477.0,475.0,475.0,475.0,475.0,474.0,473.0,472.0,473.0,474.0,474.0,474.0,475.0,477.0,478.0,479.0,479.0,480.0,480.0,481.0,482.0,484.0,486.0,489.0,491.0,494.0,496.0,499.0,501.0,504.0,509.0,515.0,522.0,530.0,524.0,517.0,508.0,499.0,493.0,486.0,482.0,478.0,476.0,474.0,474.0,475.0,473.0,470.0
750.0,759.0,768.0,774.0,781.0,781.0,782.0,777.0,772.0,769.0,766.0,764.0,761.0,756.0,750.0,728.0,706.0,682.0,658.0,641.0,624.0,616.0,608.0,602.0,596.0,593.0,590.0,590.0,591.0,588.0,584.0,579.0,573.0,566.0,559.0,554.0,548.0,543.0,538.0,536.0,533.0,533.0,534.0,530.0,525.0,522.0,518.0,518.0,519.0,522.0,526.0,527.0,528.0,530.0,532.0,532.0,533.0,535.0,538.0,536.0,533.0,534.0,536.0,536.0,535.0,530.0,524.0,524.0,524.0,524.0,524.0,523.0,522.0,518.0,514.0,512.0,509.0,509.0,508.0,507.0,506.0,504.0,502.0,502.0,503.0,505.0,507.0,508.0,509.0,500.0,490.0,488.0,485.0,484.0,482.0,482.0,481.0,481.0,480.0,479.0,478.0,478.0,478.0,477.0,475.0,475.0,475.0,475.0,474.0,473.0,471.0,471.0,471.0,471.0,471.0,473.0,476.0,478.0,481.0,481.0,480.0,480.0,480.0,483.0,487.0,489.0,492.0,494.0,497.0,499.0,501.0,503.0,505.0,511.0,518.0,527.0,536.0,530.0,524.0,517.0,509.0,502.0,495.0,490.0,485.0,485.0,484.0,483.0,482.0,478.0,473.0
766.0,770.0,775.0,778.0,781.0,782.0,784.0,779.0,774.0,770.0,766.0,764.0,761.0,756.0,751.0,735.0,718.0,694.0,669.0,647.0,625.0,616.0,607.0,598.0,588.0,579.0,570.0,569.0,568.0,568.0,567.0,562.0,557.0,550.0,542.0,536.0,530.0,526.0,522.0,519.0,516.0,516.0,515.0,514.0,512.0,513.0,514.0,513.0,511.0,511.0,510.0,510.0,510.0,510.0,511.0,510.0,508.0,508.0,509.0,509.0,509.0,509.0,509.0,509.0,508.0,506.0,504.0,504.0,505.0,505.0,505.0,503.0,501.0,498.0,495.0,495.0,495.0,493.0,491.0,492.0,493.0,492.0,490.0,490.0,489.0,489.0,489.0,488.0,487.0,487.0,487.0,486.0,485.0,485.0,484.0,484.0,484.0,484.0,483.0,482.0,480.0,480.0,479.0,478.0,476.0,475.0,474.0,474.0,474.0,473.0,472.0,472.0,471.0,471.0,471.0,472.0,474.0,475.0,477.0,478.0,479.0,480.0,481.0,483.0,486.0,490.0,495.0,497.0,499.0,500.0,502.0,503.0,505.0,509.0,513.0,520.0,528.0,526.0,524.0,518.0,512.0,504.0,495.0,493.0,490.0,491.0,493.0,491.0,489.0,483.0,477.0
762.0,767.0,773.0,776.0,779.0,780.0,781.0,778.0,775.0,772.0,769.0,766.0,763.0,761.0,758.0,745.0,732.0,705.0,677.0,656.0,635.0,623.0,611.0,601.0,590.0,582.0,573.0,565.0,556.0,554.0,552.0,547.0,541.0,535.0,529.0,524.0,519.0,518.0,517.0,524.0,531.0,539.0,547.0,549.0,552.0,550.0,547.0,547.0,548.0,547.0,545.0,537.0,529.0,524.0,518.0,518.0,517.0,518.0,519.0,519.0,518.0,520.0,523.0,521.0,518.0,513.0,508.0,504.0,499.0,499.0,499.0,499.0,498.0,498.0,498.0,499.0,501.0,501.0,501.0,501.0,500.0,498.0,495.0,495.0,494.0,493.0,491.0,490.0,488.0,489.0,490.0,490.0,489.0,489.0,490.0,490.0,489.0,488.0,487.0,485.0,483.0,482.0,480.0,479.0,478.0,479.0,480.0,478.0,475.0,474.0,472.0,472.0,472.0,472.0,471.0,470.0,469.0,471.0,473.0,476.0,480.0,480.0,479.0,481.0,483.0,488.0,493.0,494.0,496.0,497.0,498.0,498.0,499.0,499.0,498.0,504.0,511.0,514.0,517.0,514.0,511.0,501.0,490.0,490.0,489.0,493.0,497.0,494.0,491.0,484.0,477.0
751.0,758.0,765.0,770.0,775.0,777.0,780.0,779.0,778.0,775.0,772.0,772.0,773.0,773.0,774.0,758.0,742.0,716.0,689.0,672.0,654.0,638.0,622.0,613.0,603.0,594.0,585.0,572.0,559.0,550.0,540.0,535.0,529.0,525.0,520.0,521.0,523.0,529.0,535.0,546.0,557.0,573.0,590.0,596.0,602.0,598.0,594.0,593.0,592.0,589.0,586.0,577.0,567.0,558.0,548.0,544.0,539.0,538.0,536.0,535.0,534.0,543.0,552.0,551.0,550.0,550.0,550.0,544.0,537.0,531.0,525.0,526.0,527.0,530.0,533.0,530.0,527.0,523.0,518.0,514.0,510.0,507.0,503.0,502.0,501.0,501.0,501.0,500.0,499.0,499.0,500.0,498.0,495.0,495.0,496.0,496.0,496.0,495.0,494.0,491.0,488.0,487.0,486.0,484.0,482.0,482.0,483.0,481.0,479.0,478.0,477.0,477.0,478.0,478.0,478.0,476.0,474.0,472.0,469.0,472.0,475.0,475.0,476.0,477.0,479.0,481.0,484.0,486.0,488.0,489.0,491.0,488.0,485.0,484.0,482.0,485.0,488.0,490.0,493.0,495.0,498.0,491.0,483.0,483.0,482.0,487.0,493.0,492.0,491.0,484.0,476.0
753.0,758.0,764.0,768.0,772.0,776.0,780.0,779.0,778.0,776.0,773.0,775.0,777.0,779.0,782.0,768.0,753.0,730.0,706.0,688.0,670.0,653.0,636.0,628.0,620.0,608.0,596.0,577.0,558.0,550.0,541.0,533.0,525.0,526.0,528.0,541.0,554.0,564.0,575.0,575.0,575.0,595.0,615.0,630.0,645.0,646.0,648.0,644.0,640.0,633.0,626.0,615.0,603.0,590.0,576.0,573.0,570.0,567.0,564.0,558.0,551.0,562.0,573.0,576.0,580.0,584.0,589.0,586.0,582.0,574.0,566.0,567.0,568.0,570.0,573.0,569.0,565.0,557.0,549.0,543.0,537.0,530.0,522.0,518.0,513.0,512.0,510.0,508.0,505.0,504.0,502.0,500.0,497.0,498.0,500.0,500.0,501.0,500.0,498.0,496.0,493.0,492.0,490.0,489.0,487.0,487.0,488.0,486.0,484.0,484.0,483.0,483.0,484.0,482.0,480.0,479.0,477.0,472.0,467.0,468.0,470.0,470.0,471.0,471.0,472.0,473.0,475.0,475.0,476.0,476.0,477.0,475.0,472.0,470.0,467.0,468.0,469.0,469.0,469.0,471.0,474.0,474.0,473.0,473.0,474.0,478.0,482.0,482.0,482.0,477.0,472.0
759.0,763.0,768.0,769.0,771.0,775.0,780.0,780.0,781.0,781.0,780.0,782.0,784.0,784.0,784.0,774.0,764.0,740.0,716.0,699.0,681.0,664.0,647.0,636.0,624.0,612.0,599.0,576.0,553.0,543.0,533.0,528.0,522.0,539.0,557.0,578.0,600.0,606.0,613.0,608.0,602.0,612.0,623.0,648.0,674.0,685.0,696.0,690.0,683.0,673.0,663.0,645.0,626.0,612.0,598.0,602.0,607.0,594.0,581.0,574.0,567.0,578.0,590.0,596.0,602.0,612.0,623.0,623.0,624.0,621.0,617.0,621.0,625.0,622.0,618.0,611.0,604.0,596.0,588.0,581.0,574.0,566.0,557.0,549.0,540.0,528.0,515.0,511.0,506.0,504.0,501.0,502.0,503.0,505.0,507.0,507.0,506.0,505.0,504.0,502.0,499.0,498.0,496.0,494.0,491.0,490.0,489.0,488.0,487.0,487.0,486.0,487.0,489.0,487.0,484.0,481.0,478.0,474.0,469.0,468.0,467.0,467.0,466.0,467.0,468.0,468.0,468.0,468.0,467.0,466.0,464.0,468.0,472.0,470.0,467.0,464.0,461.0,461.0,461.0,461.0,462.0,463.0,464.0,463.0,461.0,463.0,466.0,466.0,467.0,466.0,465.0
760.0,765.0,770.0,773.0,777.0,778.0,779.0,781.0,784.0,785.0,786.0,784.0,781.0,778.0,774.0,764.0,753.0,732.0,711.0,694.0,677.0,666.0,654.0,643.0,632.0,614.0,595.0,572.0,548.0,537.0,526.0,528.0,531.0,559.0,588.0,610.0,633.0,636.0,640.0,633.0,626.0,627.0,628.0,654.0,681.0,698.0,716.0,713.0,709.0,698.0,687.0,667.0,646.0,640.0,634.0,632.0,629.0,612.0,595.0,586.0,577.0,589.0,602.0,610.0,619.0,633.0,648.0,657.0,666.0,670.0,674.0,676.0,678.0,671.0,663.0,654.0,644.0,636.0,628.0,618.0,608.0,596.0,583.0,575.0,567.0,548.0,529.0,518.0,507.0,505.0,503.0,505.0,507.0,509.0,512.0,511.0,510.0,509.0,507.0,504.0,501.0,501.0,502.0,499.0,496.0,494.0,492.0,491.0,490.0,490.0,491.0,491.0,491.0,488.0,485.0,483.0,481.0,479.0,476.0,472.0,467.0,465.0,463.0,464.0,465.0,465.0,464.0,464.0,463.0,464.0,466.0,480.0,495.0,495.0,495.0,482.0,468.0,463.0,458.0,457.0,456.0,457.0,458.0,457.0,455.0,454.0,453.0,453.0,454.0,456.0,458.0
763.0,765.0,768.0,774.0,780.0,781.0,782.0,783.0,784.0,785.0,787.0,783.0,779.0,768.0,756.0,741.0,726.0,712.0,698.0,682.0,666.0,661.0,655.0,641.0,627.0,604.0,581.0,562.0,543.0,534.0,524.0,534.0,544.0,577.0,611.0,637.0,664.0,664.0,665.0,655.0,644.0,644.0,643.0,664.0,685.0,702.0,719.0,722.0,725.0,713.0,701.0,686.0,670.0,664.0,657.0,649.0,641.0,624.0,606.0,597.0,588.0,601.0,614.0,629.0,644.0,658.0,672.0,685.0,699.0,703.0,708.0,702.0,696.0,688.0,680.0,671.0,661.0,653.0,644.0,635.0,626.0,614.0,601.0,590.0,578.0,557.0,536.0,523.0,510.0,509.0,508.0,510.0,512.0,514.0,516.0,516.0,517.0,515.0,513.0,509.0,505.0,505.0,505.0,503.0,501.0,499.0,497.0,497.0,497.0,497.0,496.0,495.0,493.0,490.0,487.0,486.0,484.0,484.0,483.0,479.0,475.0,471.0,467.0,467.0,466.0,466.0,466.0,467.0,468.0,469.0,471.0,489.0,508.0,516.0,524.0,513.0,502.0,487.0,471.0,464.0,456.0,457.0,459.0,462.0,465.0,464.0,462.0,457.0,452.0,452.0,451.0
758.0,759.0,761.0,768.0,775.0,779.0,783.0,781.0,779.0,779.0,778.0,777.0,775.0,759.0,743.0,724.0,705.0,694.0,683.0,669.0,655.0,647.0,639.0,620.0,601.0,582.0,562.0,551.0,539.0,532.0,524.0,539.0,555.0,589.0,624.0,650.0,677.0,683.0,689.0,681.0,672.0,671.0,670.0,684.0,699.0,713.0,727.0,727.0,727.0,721.0,714.0,709.0,703.0,697.0,690.0,674.0,657.0,639.0,620.0,608.0,596.0,604.0,612.0,631.0,651.0,667.0,684.0,698.0,713.0,721.0,730.0,725.0,720.0,704.0,688.0,674.0,660.0,648.0,636.0,625.0,614.0,604.0,593.0,580.0,567.0,549.0,530.0,523.0,515.0,517.0,520.0,519.0,518.0,521.0,524.0,525.0,526.0,522.0,517.0,515.0,512.0,513.0,515.0,512.0,508.0,506.0,503.0,502.0,500.0,499.0,498.0,497.0,495.0,494.0,492.0,491.0,489.0,489.0,488.0,486.0,484.0,482.0,479.0,479.0,479.0,476.0,473.0,471.0,468.0,472.0,477.0,495.0,514.0,526.0,538.0,535.0,532.0,516.0,500.0,487.0,473.0,471.0,468.0,470.0,472.0,472.0,471.0,464.0,457.0,454.0,450.0
746.0,743.0,740.0,744.0,749.0,755.0,761.0,762.0,763.0,764.0,765.0,765.0,764.0,748.0,732.0,717.0,702.0,693.0,683.0,670.0,656.0,648.0,639.0,615.0,591.0,574.0,556.0,546.0,536.0,531.0,526.0,543.0,560.0,588.0,617.0,645.0,673.0,686.0,700.0,700.0,699.0,698.0,697.0,709.0,722.0,734.0,747.0,748.0,749.0,745.0,740.0,733.0,725.0,714.0,703.0,688.0,672.0,655.0,637.0,622.0,607.0,612.0,617.0,638.0,660.0,676.0,693.0,705.0,718.0,727.0,736.0,733.0,729.0,713.0,697.0,676.0,655.0,634.0,613.0,599.0,584.0,576.0,567.0,556.0,545.0,534.0,522.0,526.0,531.0,534.0,537.0,533.0,529.0,530.0,532.0,533.0,535.0,532.0,529.0,530.0,532.0,531.0,529.0,524.0,519.0,515.0,511.0,508.0,504.0,503.0,501.0,498.0,495.0,494.0,493.0,493.0,494.0,494.0,493.0,493.0,492.0,491.0,490.0,487.0,483.0,478.0,472.0,471.0,469.0,472.0,475.0,491.0,507.0,521.0,535.0,536.0,538.0,526.0,513.0,498.0,482.0,481.0,480.0,485.0,490.0,484.0,478.0,471.0,464.0,459.0,454.0
751.0,742.0,733.0,729.0,725.0,730.0,736.0,737.0,739.0,743.0,747.0,746.0,745.0,734.0,722.0,715.0,708.0,699.0,690.0,681.0,671.0,660.0,649.0,626.0,602.0,579.0,556.0,546.0,535.0,533.0,531.0,547.0,563.0,586.0,610.0,634.0,658.0,678.0,699.0,705.0,711.0,715.0,719.0,731.0,744.0,757.0,771.0,771.0,770.0,767.0,764.0,758.0,752.0,741.0,730.0,711.0,692.0,674.0,655.0,641.0,627.0,633.0,640.0,661.0,682.0,694.0,707.0,715.0,723.0,728.0,733.0,730.0,727.0,716.0,705.0,687.0,668.0,640.0,612.0,592.0,572.0,561.0,549.0,542.0,535.0,534.0,533.0,545.0,557.0,560.0,563.0,557.0,551.0,547.0,543.0,542.0,541.0,546.0,552.0,557.0,563.0,559.0,554.0,547.0,540.0,531.0,521.0,515.0,508.0,505.0,501.0,499.0,497.0,498.0,499.0,501.0,503.0,502.0,501.0,502.0,503.0,503.0,502.0,499.0,495.0,485.0,475.0,473.0,470.0,472.0,474.0,480.0,487.0,504.0,521.0,530.0,539.0,527.0,514.0,504.0,493.0,497.0,502.0,508.0,514.0,510.0,506.0,492.0,477.0,469.0,461.0
756.0,748.0,740.0,723.0,706.0,714.0,722.0,722.0,722.0,725.0,728.0,726.0,723.0,717.0,710.0,710.0,710.0,703.0,696.0,685.0,673.0,659.0,645.0,625.0,604.0,581.0,558.0,546.0,533.0,531.0,529.0,547.0,565.0,585.0,605.0,624.0,643.0,666.0,689.0,704.0,719.0,727.0,735.0,746.0,757.0,768.0,779.0,780.0,781.0,781.0,782.0,780.0,777.0,767.0,757.0,734.0,711.0,691.0,671.0,662.0,653.0,661.0,670.0,687.0,705.0,714.0,724.0,725.0,726.0,722.0,718.0,716.0,713.0,707.0,700.0,684.0,667.0,642.0,616.0,596.0,576.0,561.0,546.0,542.0,538.0,549.0,560.0,570.0,581.0,584.0,588.0,586.0,584.0,578.0,572.0,565.0,558.0,560.0,562.0,574.0,586.0,585.0,583.0,577.0,571.0,556.0,541.0,529.0,516.0,512.0,507.0,506.0,504.0,505.0,507.0,509.0,511.0,511.0,510.0,511.0,512.0,515.0,518.0,515.0,512.0,496.0,479.0,475.0,470.0,474.0,479.0,482.0,485.0,491.0,498.0,512.0,527.0,517.0,507.0,504.0,501.0,510.0,519.0,524.0,530.0,529.0,527.0,514.0,501.0,490.0,478.0
755.0,749.0,743.0,722.0,701.0,703.0,706.0,707.0,709.0,706.0,702.0,698.0,693.0,689.0,685.0,693.0,701.0,700.0,698.0,685.0,672.0,655.0,638.0,618.0,597.0,578.0,558.0,547.0,536.0,533.0,530.0,548.0,566.0,579.0,592.0,608.0,625.0,649.0,674.0,694.0,714.0,730.0,746.0,755.0,764.0,772.0,781.0,786.0,792.0,794.0,796.0,795.0,793.0,786.0,778.0,755.0,732.0,712.0,692.0,687.0,681.0,691.0,701.0,715.0,729.0,734.0,739.0,732.0,724.0,710.0,696.0,692.0,687.0,682.0,677.0,666.0,654.0,637.0,620.0,600.0,580.0,565.0,549.0,549.0,550.0,567.0,585.0,595.0,606.0,612.0,618.0,616.0,613.0,604.0,594.0,590.0,586.0,582.0,578.0,588.0,599.0,605.0,611.0,605.0,598.0,581.0,564.0,551.0,538.0,529.0,519.0,515.0,511.0,513.0,515.0,515.0,516.0,518.0,520.0,523.0,527.0,527.0,526.0,511.0,496.0,486.0,475.0,475.0,475.0,479.0,484.0,487.0,490.0,490.0,491.0,502.0,514.0,514.0,513.0,517.0,521.0,525.0,530.0,532.0,534.0,529.0,524.0,519.0,513.0,507.0,501.0
754.0,751.0,747.0,729.0,710.0,699.0,687.0,693.0,699.0,689.0,678.0,668.0,657.0,657.0,656.0,670.0,684.0,689.0,694.0,681.0,668.0,649.0,629.0,611.0,592.0,577.0,562.0,552.0,541.0,537.0,533.0,546.0,560.0,570.0,581.0,599.0,618.0,643.0,669.0,690.0,711.0,727.0,744.0,751.0,759.0,770.0,782.0,791.0,800.0,805.0,810.0,811.0,813.0,806.0,799.0,777.0,755.0,737.0,718.0,718.0,718.0,727.0,737.0,744.0,752.0,750.0,748.0,732.0,716.0,698.0,680.0,669.0,658.0,654.0,649.0,641.0,633.0,620.0,607.0,590.0,572.0,564.0,555.0,564.0,574.0,588.0,602.0,615.0,629.0,635.0,642.0,642.0,642.0,634.0,626.0,622.0,617.0,617.0,616.0,617.0,618.0,622.0,627.0,623.0,618.0,609.0,600.0,588.0,576.0,564.0,551.0,539.0,526.0,525.0,523.0,522.0,520.0,526.0,533.0,531.0,529.0,515.0,500.0,489.0,478.0,479.0,480.0,483.0,486.0,489.0,492.0,494.0,497.0,496.0,494.0,502.0,511.0,522.0,533.0,534.0,535.0,535.0,535.0,533.0,530.0,527.0,523.0,524.0,526.0,523.0,519.0
752.0,748.0,744.0,735.0,725.0,703.0,681.0,677.0,672.0,664.0,655.0,642.0,629.0,628.0,627.0,641.0,655.0,666.0,677.0,673.0,669.0,653.0,636.0,622.0,608.0,591.0,574.0,560.0,546.0,541.0,535.0,542.0,550.0,561.0,573.0,594.0,615.0,639.0,663.0,681.0,700.0,711.0,723.0,735.0,747.0,762.0,778.0,790.0,803.0,810.0,818.0,822.0,826.0,823.0,820.0,806.0,791.0,776.0,760.0,760.0,759.0,763.0,768.0,767.0,766.0,757.0,747.0,732.0,716.0,694.0,671.0,653.0,635.0,627.0,619.0,611.0,602.0,594.0,585.0,574.0,562.0,569.0,577.0,589.0,601.0,611.0,621.0,637.0,654.0,664.0,674.0,674.0,673.0,668.0,663.0,659.0,654.0,649.0,644.0,638.0,632.0,632.0,633.0,633.0,632.0,624.0,616.0,605.0,594.0,580.0,566.0,551.0,536.0,534.0,531.0,527.0,523.0,521.0,519.0,512.0,504.0,494.0,483.0,483.0,484.0,488.0,493.0,495.0,498.0,499.0,501.0,502.0,503.0,501.0,498.0,500.0,502.0,519.0,536.0,538.0,540.0,540.0,540.0,537.0,534.0,532.0,529.0,532.0,535.0,530.0,524.0
735.0,737.0,740.0,733.0,726.0,713.0,700.0,690.0,680.0,675.0,669.0,663.0,657.0,643.0,629.0,623.0,617.0,629.0,642.0,654.0,666.0,665.0,664.0,651.0,638.0,618.0,597.0,575.0,552.0,543.0,534.0,541.0,549.0,558.0,568.0,585.0,602.0,623.0,644.0,659.0,675.0,688.0,701.0,718.0,736.0,753.0,771.0,784.0,797.0,806.0,816.0,823.0,831.0,834.0,838.0,830.0,821.0,810.0,799.0,794.0,789.0,786.0,783.0,775.0,767.0,755.0,743.0,727.0,710.0,688.0,666.0,647.0,628.0,621.0,613.0,608.0,602.0,594.0,585.0,577.0,569.0,586.0,604.0,618.0,632.0,636.0,641.0,657.0,673.0,686.0,699.0,701.0,704.0,700.0,696.0,687.0,677.0,669.0,660.0,650.0,640.0,637.0,633.0,631.0,628.0,615.0,602.0,592.0,582.0,569.0,555.0,543.0,531.0,527.0,523.0,516.0,508.0,501.0,493.0,489.0,485.0,489.0,494.0,498.0,502.0,506.0,511.0,511.0,510.0,510.0,509.0,509.0,509.0,509.0,508.0,506.0,503.0,518.0,533.0,539.0,546.0,546.0,546.0,544.0,541.0,541.0,542.0,541.0,540.0,529.0,517.0
717.0,724.0,731.0,729.0,727.0,724.0,721.0,717.0,713.0,710.0,706.0,698.0,690.0,670.0,650.0,628.0,605.0,606.0,608.0,628.0,649.0,661.0,674.0,664.0,653.0,631.0,608.0,583.0,557.0,547.0,537.0,548.0,559.0,575.0,591.0,599.0,607.0,621.0,636.0,652.0,669.0,689.0,710.0,731.0,753.0,762.0,772.0,783.0,794.0,805.0,816.0,823.0,831.0,839.0,847.0,844.0,840.0,830.0,819.0,812.0,804.0,800.0,795.0,783.0,770.0,759.0,748.0,730.0,712.0,694.0,676.0,661.0,646.0,641.0,636.0,627.0,617.0,604.0,590.0,587.0,583.0,603.0,623.0,639.0,655.0,659.0,664.0,678.0,692.0,705.0,719.0,723.0,727.0,719.0,711.0,696.0,681.0,667.0,653.0,644.0,635.0,628.0,620.0,612.0,604.0,591.0,578.0,570.0,562.0,551.0,539.0,528.0,516.0,510.0,503.0,494.0,485.0,484.0,482.0,488.0,494.0,498.0,502.0,509.0,517.0,521.0,526.0,525.0,523.0,522.0,520.0,519.0,518.0,516.0,514.0,511.0,508.0,517.0,527.0,537.0,547.0,548.0,549.0,547.0,545.0,545.0,546.0,540.0,534.0,521.0,507.0
708.0,717.0,727.0,730.0,733.0,738.0,743.0,742.0,741.0,735.0,728.0,713.0,697.0,681.0,665.0,645.0,625.0,608.0,591.0,608.0,626.0,644.0,662.0,653.0,643.0,622.0,601.0,579.0,557.0,551.0,544.0,553.0,563.0,584.0,605.0,612.0,620.0,631.0,643.0,657.0,671.0,694.0,718.0,740.0,762.0,769.0,776.0,786.0,797.0,809.0,822.0,828.0,835.0,841.0,847.0,847.0,848.0,842.0,835.0,825.0,814.0,808.0,801.0,790.0,779.0,769.0,759.0,744.0,729.0,711.0,692.0,678.0,664.0,658.0,651.0,640.0,629.0,614.0,598.0,593.0,588.0,611.0,635.0,655.0,675.0,684.0,693.0,703.0,713.0,725.0,738.0,736.0,734.0,723.0,711.0,692.0,673.0,658.0,642.0,630.0,618.0,609.0,599.0,587.0,574.0,563.0,552.0,548.0,543.0,532.0,521.0,512.0,502.0,493.0,484.0,482.0,479.0,483.0,487.0,494.0,502.0,511.0,520.0,527.0,535.0,537.0,540.0,539.0,537.0,535.0,533.0,530.0,527.0,525.0,522.0,519.0,516.0,521.0,527.0,538.0,549.0,549.0,548.0,548.0,547.0,545.0,543.0,533.0,522.0,508.0,493.0
706.0,721.0,736.0,742.0,749.0,756.0,764.0,765.0,766.0,753.0,740.0,722.0,704.0,692.0,679.0,660.0,640.0,619.0,598.0,598.0,597.0,612.0,628.0,625.0,621.0,604.0,587.0,570.0,552.0,547.0,541.0,555.0,570.0,579.0,589.0,598.0,607.0,620.0,633.0,646.0,660.0,679.0,699.0,725.0,752.0,764.0,777.0,786.0,796.0,806.0,816.0,821.0,827.0,835.0,844.0,847.0,851.0,848.0,845.0,835.0,825.0,815.0,805.0,793.0,780.0,771.0,762.0,750.0,737.0,720.0,702.0,687.0,672.0,664.0,655.0,645.0,635.0,617.0,599.0,596.0,593.0,618.0,643.0,665.0,688.0,701.0,715.0,725.0,736.0,740.0,745.0,732.0,719.0,707.0,695.0,680.0,665.0,651.0,637.0,623.0,609.0,596.0,582.0,567.0,552.0,543.0,533.0,531.0,528.0,518.0,507.0,498.0,488.0,486.0,483.0,485.0,488.0,488.0,488.0,498.0,508.0,520.0,533.0,542.0,551.0,553.0,556.0,553.0,549.0,545.0,540.0,538.0,535.0,533.0,530.0,526.0,521.0,526.0,532.0,542.0,553.0,550.0,546.0,541.0,536.0,532.0,527.0,515.0,502.0,492.0,482.0
721.0,737.0,753.0,758.0,763.0,767.0,772.0,770.0,768.0,754.0,740.0,723.0,705.0,692.0,679.0,664.0,648.0,628.0,608.0,592.0,575.0,580.0,586.0,585.0,584.0,573.0,561.0,553.0,544.0,550.0,556.0,579.0,603.0,609.0,616.0,620.0,625.0,634.0,644.0,654.0,664.0,682.0,700.0,719.0,739.0,756.0,773.0,783.0,793.0,800.0,808.0,812.0,817.0,826.0,836.0,845.0,854.0,855.0,856.0,842.0,827.0,812.0,796.0,783.0,769.0,762.0,755.0,743.0,730.0,714.0,698.0,684.0,670.0,662.0,654.0,640.0,625.0,611.0,597.0,599.0,602.0,625.0,649.0,672.0,695.0,713.0,731.0,739.0,747.0,742.0,737.0,716.0,695.0,680.0,664.0,656.0,648.0,639.0,629.0,617.0,605.0,591.0,576.0,559.0,542.0,530.0,518.0,513.0,508.0,501.0,494.0,492.0,489.0,493.0,498.0,501.0,504.0,501.0,498.0,503.0,508.0,522.0,536.0,546.0,557.0,560.0,564.0,560.0,556.0,551.0,546.0,543.0,539.0,537.0,534.0,529.0,524.0,534.0,544.0,549.0,555.0,548.0,540.0,529.0,517.0,511.0,505.0,498.0,491.0,486.0,481.0
728.0,745.0,763.0,765.0,768.0,768.0,768.0,761.0,753.0,739.0,724.0,709.0,694.0,680.0,665.0,655.0,644.0,626.0,607.0,592.0,577.0,569.0,560.0,557.0,553.0,548.0,543.0,541.0,539.0,560.0,581.0,608.0,635.0,643.0,651.0,655.0,660.0,664.0,668.0,673.0,679.0,689.0,700.0,715.0,730.0,746.0,762.0,773.0,785.0,786.0,788.0,791.0,795.0,808.0,821.0,833.0,846.0,851.0,856.0,841.0,826.0,804.0,781.0,768.0,755.0,746.0,736.0,725.0,714.0,702.0,690.0,675.0,660.0,650.0,639.0,630.0,621.0,615.0,609.0,620.0,631.0,650.0,670.0,686.0,703.0,720.0,737.0,744.0,751.0,743.0,734.0,709.0,683.0,661.0,638.0,629.0,620.0,614.0,608.0,601.0,593.0,580.0,567.0,551.0,534.0,524.0,513.0,503.0,493.0,491.0,489.0,499.0,509.0,520.0,532.0,532.0,532.0,527.0,521.0,517.0,513.0,526.0,540.0,552.0,564.0,566.0,568.0,565.0,561.0,555.0,549.0,543.0,536.0,534.0,531.0,535.0,539.0,546.0,553.0,552.0,551.0,539.0,527.0,517.0,507.0,502.0,496.0,492.0,487.0,493.0,499.0
716.0,731.0,746.0,749.0,752.0,747.0,741.0,732.0,722.0,708.0,693.0,682.0,670.0,659.0,647.0,637.0,626.0,609.0,591.0,581.0,571.0,562.0,553.0,548.0,543.0,543.0,542.0,551.0,561.0,583.0,605.0,632.0,659.0,670.0,681.0,681.0,680.0,679.0,678.0,678.0,678.0,684.0,691.0,703.0,715.0,731.0,748.0,755.0,763.0,762.0,760.0,767.0,774.0,790.0,807.0,820.0,834.0,842.0,851.0,841.0,831.0,803.0,775.0,759.0,743.0,730.0,717.0,707.0,696.0,687.0,677.0,670.0,662.0,655.0,648.0,641.0,634.0,626.0,617.0,631.0,645.0,665.0,686.0,697.0,709.0,724.0,739.0,740.0,741.0,732.0,722.0,703.0,684.0,664.0,644.0,628.0,612.0,601.0,590.0,584.0,577.0,569.0,560.0,546.0,532.0,517.0,502.0,497.0,491.0,497.0,504.0,524.0,545.0,552.0,560.0,558.0,556.0,550.0,544.0,535.0,525.0,534.0,543.0,557.0,571.0,571.0,571.0,569.0,566.0,560.0,553.0,546.0,538.0,535.0,532.0,541.0,551.0,553.0,555.0,550.0,545.0,540.0,535.0,530.0,525.0,514.0,503.0,501.0,498.0,505.0,512.0
689.0,700.0,712.0,714.0,717.0,711.0,705.0,694.0,683.0,671.0,658.0,645.0,631.0,619.0,607.0,600.0,593.0,584.0,574.0,564.0,554.0,550.0,546.0,543.0,540.0,546.0,552.0,561.0,571.0,588.0,606.0,628.0,651.0,667.0,683.0,685.0,687.0,681.0,675.0,675.0,675.0,684.0,694.0,702.0,711.0,719.0,727.0,731.0,735.0,735.0,735.0,745.0,756.0,772.0,789.0,806.0,823.0,831.0,840.0,832.0,824.0,801.0,778.0,761.0,744.0,730.0,716.0,704.0,692.0,686.0,679.0,682.0,685.0,679.0,673.0,659.0,644.0,632.0,620.0,636.0,652.0,669.0,687.0,699.0,712.0,722.0,733.0,729.0,724.0,715.0,705.0,695.0,684.0,667.0,650.0,634.0,617.0,602.0,586.0,574.0,562.0,554.0,545.0,533.0,521.0,511.0,500.0,510.0,520.0,528.0,536.0,551.0,567.0,575.0,583.0,576.0,568.0,556.0,543.0,534.0,525.0,535.0,545.0,559.0,574.0,574.0,575.0,573.0,571.0,566.0,561.0,556.0,550.0,550.0,549.0,555.0,561.0,560.0,559.0,554.0,548.0,547.0,546.0,545.0,544.0,532.0,519.0,516.0,513.0,517.0,521.0
655.0,666.0,677.0,679.0,682.0,676.0,670.0,658.0,646.0,632.0,618.0,608.0,598.0,593.0,587.0,586.0,585.0,577.0,569.0,561.0,553.0,548.0,543.0,542.0,540.0,544.0,549.0,552.0,556.0,569.0,583.0,602.0,621.0,638.0,655.0,660.0,666.0,660.0,654.0,660.0,666.0,682.0,698.0,703.0,708.0,708.0,707.0,708.0,709.0,711.0,713.0,724.0,736.0,755.0,774.0,792.0,811.0,819.0,828.0,820.0,811.0,794.0,777.0,763.0,748.0,734.0,720.0,709.0,698.0,695.0,692.0,698.0,705.0,698.0,690.0,670.0,650.0,642.0,634.0,649.0,664.0,678.0,692.0,703.0,714.0,715.0,717.0,707.0,696.0,686.0,675.0,673.0,670.0,659.0,648.0,631.0,613.0,595.0,576.0,563.0,549.0,536.0,523.0,514.0,504.0,515.0,526.0,546.0,567.0,567.0,567.0,574.0,581.0,588.0,596.0,584.0,572.0,557.0,541.0,533.0,524.0,533.0,542.0,556.0,570.0,573.0,577.0,576.0,575.0,571.0,567.0,562.0,557.0,557.0,558.0,562.0,566.0,565.0,564.0,562.0,560.0,559.0,557.0,554.0,551.0,540.0,529.0,527.0,524.0,527.0,531.0
641.0,642.0,644.0,643.0,642.0,636.0,629.0,626.0,622.0,617.0,611.0,611.0,610.0,610.0,611.0,601.0,590.0,578.0,566.0,557.0,547.0,545.0,542.0,548.0,555.0,564.0,573.0,567.0,561.0,561.0,561.0,576.0,591.0,606.0,621.0,625.0,629.0,629.0,629.0,642.0,656.0,668.0,680.0,684.0,688.0,688.0,689.0,688.0,686.0,691.0,697.0,716.0,735.0,751.0,768.0,784.0,801.0,804.0,807.0,803.0,798.0,783.0,768.0,755.0,742.0,731.0,720.0,712.0,704.0,702.0,700.0,704.0,708.0,701.0,693.0,675.0,656.0,651.0,645.0,663.0,682.0,695.0,708.0,708.0,709.0,705.0,700.0,685.0,669.0,660.0,650.0,649.0,648.0,642.0,635.0,617.0,598.0,576.0,554.0,540.0,525.0,518.0,510.0,518.0,527.0,547.0,568.0,586.0,605.0,606.0,608.0,604.0,599.0,599.0,600.0,586.0,571.0,555.0,539.0,537.0,534.0,545.0,556.0,563.0,571.0,575.0,580.0,579.0,577.0,574.0,571.0,566.0,561.0,562.0,563.0,565.0,568.0,572.0,576.0,573.0,570.0,567.0,563.0,557.0,550.0,542.0,533.0,533.0,534.0,532.0,530.0
662.0,653.0,643.0,640.0,636.0,636.0,637.0,640.0,643.0,646.0,650.0,649.0,648.0,634.0,619.0,601.0,582.0,570.0,558.0,552.0,545.0,549.0,553.0,571.0,590.0,599.0,609.0,598.0,587.0,574.0,560.0,565.0,571.0,577.0,583.0,587.0,591.0,596.0,601.0,611.0,622.0,632.0,642.0,646.0,651.0,652.0,654.0,657.0,661.0,675.0,689.0,710.0,731.0,749.0,767.0,781.0,795.0,799.0,804.0,799.0,793.0,776.0,758.0,747.0,736.0,727.0,718.0,713.0,708.0,709.0,711.0,710.0,709.0,700.0,690.0,677.0,663.0,658.0,652.0,674.0,696.0,707.0,719.0,714.0,708.0,699.0,689.0,671.0,652.0,643.0,633.0,628.0,623.0,618.0,613.0,595.0,576.0,552.0,527.0,519.0,510.0,515.0,520.0,535.0,551.0,572.0,593.0,615.0,638.0,644.0,650.0,641.0,632.0,622.0,611.0,593.0,575.0,561.0,546.0,555.0,564.0,573.0,583.0,582.0,581.0,582.0,584.0,583.0,581.0,578.0,574.0,569.0,564.0,564.0,564.0,568.0,573.0,578.0,584.0,581.0,577.0,571.0,564.0,556.0,547.0,542.0,536.0,539.0,543.0,539.0,534.0
705.0,696.0,687.0,687.0,686.0,685.0,684.0,686.0,689.0,689.0,688.0,675.0,661.0,643.0,624.0,603.0,582.0,569.0,555.0,550.0,545.0,561.0,578.0,596.0,614.0,626.0,639.0,628.0,617.0,600.0,582.0,582.0,583.0,588.0,594.0,590.0,586.0,589.0,593.0,597.0,601.0,606.0,611.0,614.0,617.0,624.0,631.0,646.0,662.0,676.0,691.0,707.0,723.0,743.0,763.0,777.0,792.0,795.0,798.0,793.0,787.0,772.0,757.0,747.0,736.0,729.0,722.0,717.0,712.0,710.0,708.0,705.0,701.0,694.0,687.0,677.0,666.0,662.0,658.0,675.0,693.0,701.0,710.0,703.0,695.0,681.0,667.0,658.0,648.0,631.0,613.0,605.0,596.0,593.0,589.0,563.0,537.0,529.0,520.0,526.0,533.0,547.0,561.0,570.0,580.0,593.0,606.0,631.0,656.0,664.0,673.0,661.0,649.0,630.0,611.0,590.0,568.0,562.0,555.0,572.0,589.0,595.0,601.0,598.0,594.0,591.0,587.0,585.0,583.0,579.0,575.0,571.0,566.0,566.0,567.0,574.0,582.0,587.0,592.0,587.0,581.0,574.0,566.0,557.0,547.0,546.0,545.0,550.0,555.0,554.0,553.0
716.0,713.0,709.0,713.0,717.0,718.0,720.0,717.0,713.0,704.0,694.0,677.0,659.0,643.0,626.0,605.0,584.0,569.0,553.0,553.0,552.0,578.0,604.0,621.0,639.0,648.0,658.0,648.0,638.0,617.0,595.0,602.0,610.0,621.0,633.0,630.0,626.0,631.0,637.0,639.0,641.0,637.0,632.0,625.0,617.0,633.0,650.0,667.0,685.0,699.0,713.0,719.0,726.0,740.0,754.0,767.0,781.0,786.0,791.0,789.0,787.0,777.0,767.0,755.0,743.0,735.0,726.0,720.0,714.0,709.0,703.0,697.0,690.0,684.0,678.0,673.0,668.0,669.0,670.0,680.0,691.0,691.0,690.0,681.0,672.0,658.0,644.0,638.0,631.0,619.0,606.0,586.0,566.0,562.0,557.0,539.0,521.0,530.0,540.0,552.0,564.0,579.0,595.0,607.0,619.0,622.0,626.0,647.0,669.0,674.0,680.0,661.0,642.0,624.0,605.0,585.0,565.0,569.0,573.0,590.0,608.0,612.0,617.0,612.0,607.0,601.0,594.0,591.0,587.0,585.0,582.0,576.0,569.0,569.0,570.0,580.0,590.0,593.0,596.0,591.0,586.0,579.0,571.0,560.0,549.0,553.0,558.0,563.0,568.0,565.0,561.0
703.0,704.0,705.0,713.0,721.0,724.0,728.0,725.0,721.0,707.0,693.0,676.0,659.0,645.0,631.0,616.0,600.0,580.0,560.0,558.0,556.0,584.0,613.0,635.0,657.0,663.0,669.0,655.0,641.0,623.0,604.0,614.0,625.0,638.0,652.0,655.0,659.0,666.0,673.0,674.0,675.0,668.0,660.0,645.0,629.0,635.0,641.0,662.0,684.0,703.0,723.0,731.0,739.0,745.0,752.0,763.0,774.0,780.0,786.0,785.0,783.0,778.0,773.0,766.0,758.0,750.0,742.0,729.0,716.0,708.0,700.0,694.0,688.0,682.0,676.0,676.0,675.0,677.0,680.0,682.0,684.0,678.0,672.0,660.0,648.0,635.0,621.0,612.0,602.0,592.0,582.0,562.0,541.0,535.0,528.0,526.0,524.0,535.0,547.0,566.0,586.0,609.0,632.0,644.0,657.0,658.0,659.0,671.0,684.0,678.0,672.0,651.0,630.0,615.0,599.0,589.0,579.0,586.0,593.0,609.0,626.0,634.0,643.0,636.0,629.0,617.0,604.0,599.0,594.0,591.0,588.0,580.0,571.0,576.0,581.0,590.0,600.0,600.0,601.0,595.0,588.0,580.0,572.0,563.0,553.0,562.0,571.0,574.0,577.0,573.0,568.0
693.0,692.0,691.0,700.0,709.0,712.0,715.0,716.0,717.0,707.0,696.0,679.0,661.0,651.0,640.0,624.0,607.0,586.0,565.0,563.0,560.0,585.0,610.0,634.0,659.0,663.0,668.0,656.0,644.0,630.0,616.0,626.0,637.0,646.0,656.0,669.0,683.0,692.0,702.0,706.0,711.0,705.0,699.0,680.0,660.0,647.0,633.0,651.0,669.0,694.0,720.0,734.0,749.0,754.0,759.0,765.0,771.0,777.0,784.0,783.0,782.0,779.0,775.0,766.0,757.0,748.0,738.0,730.0,722.0,716.0,709.0,703.0,696.0,696.0,696.0,691.0,686.0,685.0,684.0,683.0,681.0,671.0,661.0,646.0,630.0,616.0,601.0,586.0,570.0,558.0,545.0,539.0,532.0,533.0,534.0,539.0,545.0,544.0,542.0,564.0,586.0,612.0,638.0,653.0,669.0,674.0,680.0,683.0,687.0,675.0,663.0,644.0,625.0,612.0,598.0,603.0,609.0,619.0,629.0,637.0,645.0,653.0,662.0,654.0,646.0,629.0,611.0,603.0,595.0,590.0,585.0,582.0,579.0,586.0,593.0,600.0,608.0,605.0,602.0,596.0,589.0,578.0,567.0,565.0,562.0,570.0,578.0,581.0,584.0,580.0,576.0
679.0,679.0,679.0,687.0,696.0,694.0,692.0,700.0,709.0,707.0,705.0,687.0,668.0,658.0,648.0,631.0,613.0,590.0,567.0,567.0,568.0,587.0,607.0,631.0,655.0,664.0,673.0,662.0,651.0,638.0,624.0,634.0,644.0,657.0,671.0,687.0,703.0,713.0,724.0,729.0,734.0,732.0,729.0,714.0,698.0,678.0,657.0,657.0,658.0,687.0,716.0,736.0,757.0,763.0,770.0,771.0,773.0,778.0,784.0,782.0,780.0,776.0,772.0,766.0,759.0,753.0,746.0,739.0,732.0,723.0,713.0,708.0,703.0,706.0,710.0,703.0,695.0,691.0,687.0,683.0,678.0,666.0,654.0,637.0,620.0,605.0,589.0,570.0,551.0,546.0,540.0,546.0,553.0,559.0,566.0,570.0,574.0,561.0,548.0,557.0,566.0,594.0,622.0,643.0,664.0,677.0,691.0,688.0,685.0,671.0,657.0,642.0,627.0,618.0,608.0,623.0,639.0,651.0,664.0,667.0,670.0,672.0,674.0,661.0,648.0,631.0,614.0,604.0,593.0,588.0,582.0,584.0,587.0,593.0,599.0,603.0,607.0,605.0,602.0,594.0,585.0,575.0,564.0,571.0,578.0,583.0,588.0,592.0,597.0,593.0,588.0
677.0,671.0,664.0,669.0,674.0,671.0,668.0,683.0,699.0,705.0,712.0,701.0,690.0,679.0,667.0,646.0,624.0,598.0,572.0,572.0,572.0,590.0,609.0,631.0,653.0,667.0,681.0,671.0,661.0,647.0,632.0,640.0,648.0,664.0,681.0,700.0,719.0,731.0,744.0,747.0,750.0,744.0,738.0,722.0,706.0,689.0,672.0,666.0,660.0,683.0,706.0,728.0,750.0,760.0,771.0,774.0,777.0,782.0,787.0,786.0,784.0,777.0,769.0,767.0,765.0,759.0,752.0,742.0,731.0,723.0,715.0,715.0,714.0,712.0,710.0,701.0,692.0,688.0,683.0,679.0,674.0,661.0,648.0,634.0,619.0,602.0,584.0,564.0,543.0,547.0,552.0,565.0,578.0,587.0,596.0,599.0,603.0,594.0,585.0,575.0,564.0,584.0,605.0,627.0,649.0,663.0,677.0,679.0,681.0,669.0,656.0,642.0,628.0,626.0,623.0,641.0,659.0,673.0,687.0,689.0,691.0,685.0,679.0,664.0,649.0,634.0,618.0,609.0,599.0,595.0,590.0,592.0,594.0,598.0,602.0,602.0,602.0,597.0,592.0,583.0,573.0,574.0,576.0,585.0,594.0,599.0,605.0,606.0,608.0,605.0,601.0
682.0,668.0,654.0,652.0,649.0,650.0,652.0,668.0,684.0,697.0,711.0,708.0,704.0,692.0,679.0,657.0,635.0,605.0,574.0,572.0,570.0,593.0,616.0,632.0,649.0,662.0,675.0,669.0,663.0,653.0,642.0,650.0,659.0,674.0,689.0,708.0,728.0,742.0,757.0,753.0,748.0,738.0,727.0,711.0,695.0,693.0,691.0,683.0,674.0,679.0,685.0,708.0,732.0,748.0,764.0,770.0,777.0,782.0,788.0,790.0,792.0,784.0,776.0,770.0,763.0,754.0,745.0,734.0,723.0,714.0,704.0,701.0,698.0,694.0,690.0,686.0,681.0,677.0,673.0,669.0,665.0,654.0,643.0,624.0,604.0,587.0,570.0,563.0,556.0,567.0,579.0,595.0,611.0,621.0,632.0,634.0,636.0,626.0,616.0,598.0,580.0,588.0,597.0,620.0,644.0,659.0,674.0,683.0,692.0,682.0,671.0,655.0,638.0,637.0,635.0,652.0,669.0,684.0,699.0,699.0,700.0,691.0,682.0,667.0,651.0,639.0,627.0,622.0,616.0,608.0,600.0,600.0,600.0,601.0,602.0,601.0,599.0,591.0,582.0,570.0,557.0,573.0,589.0,598.0,607.0,611.0,616.0,616.0,616.0,613.0,610.0
692.0,681.0,670.0,652.0,634.0,634.0,634.0,649.0,665.0,680.0,695.0,694.0,692.0,682.0,672.0,653.0,633.0,607.0,580.0,574.0,568.0,591.0,615.0,632.0,650.0,660.0,670.0,669.0,668.0,661.0,653.0,665.0,677.0,697.0,717.0,732.0,747.0,754.0,761.0,754.0,747.0,732.0,717.0,710.0,703.0,710.0,718.0,706.0,694.0,687.0,680.0,693.0,707.0,726.0,745.0,758.0,772.0,781.0,791.0,791.0,792.0,785.0,778.0,764.0,750.0,740.0,729.0,716.0,702.0,689.0,676.0,670.0,663.0,662.0,660.0,656.0,652.0,649.0,645.0,641.0,636.0,625.0,614.0,596.0,577.0,567.0,556.0,568.0,580.0,594.0,608.0,626.0,645.0,653.0,661.0,660.0,659.0,646.0,632.0,610.0,588.0,591.0,595.0,619.0,644.0,665.0,687.0,700.0,714.0,710.0,706.0,689.0,672.0,660.0,648.0,663.0,678.0,692.0,706.0,707.0,709.0,700.0,691.0,675.0,659.0,649.0,639.0,634.0,628.0,620.0,612.0,612.0,612.0,612.0,612.0,612.0,611.0,603.0,594.0,584.0,573.0,586.0,600.0,608.0,616.0,619.0,622.0,620.0,617.0,616.0,614.0
691.0,680.0,668.0,649.0,630.0,625.0,619.0,631.0,643.0,656.0,670.0,669.0,668.0,659.0,649.0,633.0,616.0,604.0,591.0,581.0,570.0,591.0,613.0,630.0,647.0,660.0,674.0,679.0,685.0,679.0,673.0,686.0,699.0,719.0,740.0,754.0,768.0,765.0,761.0,746.0,731.0,721.0,711.0,717.0,724.0,732.0,740.0,731.0,722.0,713.0,703.0,701.0,698.0,712.0,726.0,744.0,763.0,775.0,788.0,787.0,785.0,777.0,768.0,752.0,736.0,722.0,708.0,696.0,683.0,671.0,658.0,645.0,632.0,631.0,629.0,624.0,619.0,614.0,609.0,603.0,596.0,585.0,574.0,563.0,552.0,562.0,573.0,589.0,606.0,624.0,642.0,659.0,676.0,679.0,683.0,671.0,658.0,643.0,627.0,609.0,590.0,595.0,600.0,621.0,643.0,668.0,694.0,709.0,724.0,722.0,719.0,706.0,693.0,685.0,676.0,688.0,700.0,712.0,724.0,723.0,722.0,711.0,700.0,689.0,677.0,665.0,652.0,646.0,639.0,632.0,624.0,624.0,623.0,624.0,625.0,625.0,624.0,615.0,606.0,601.0,596.0,603.0,611.0,617.0,623.0,622.0,621.0,618.0,614.0,610.0,606.0
687.0,673.0,658.0,646.0,634.0,625.0,616.0,617.0,618.0,630.0,643.0,643.0,644.0,634.0,624.0,612.0,599.0,588.0,576.0,577.0,578.0,596.0,614.0,629.0,644.0,656.0,668.0,679.0,691.0,696.0,702.0,716.0,730.0,746.0,762.0,770.0,779.0,772.0,764.0,745.0,725.0,718.0,711.0,728.0,745.0,754.0,764.0,760.0,756.0,749.0,741.0,731.0,721.0,720.0,718.0,733.0,748.0,765.0,782.0,780.0,778.0,767.0,756.0,741.0,726.0,708.0,689.0,675.0,660.0,649.0,637.0,622.0,607.0,603.0,599.0,594.0,589.0,581.0,572.0,566.0,559.0,556.0,552.0,561.0,570.0,586.0,603.0,620.0,638.0,655.0,672.0,685.0,699.0,698.0,697.0,677.0,656.0,636.0,615.0,601.0,587.0,602.0,617.0,632.0,647.0,668.0,690.0,706.0,723.0,723.0,724.0,716.0,707.0,705.0,702.0,711.0,720.0,728.0,736.0,736.0,735.0,724.0,712.0,701.0,689.0,676.0,663.0,654.0,644.0,638.0,632.0,632.0,632.0,632.0,633.0,631.0,628.0,622.0,615.0,614.0,613.0,617.0,622.0,623.0,625.0,621.0,617.0,612.0,606.0,600.0,593.0
686.0,677.0,667.0,656.0,645.0,633.0,620.0,611.0,602.0,603.0,604.0,606.0,609.0,600.0,591.0,581.0,571.0,570.0,568.0,583.0,598.0,614.0,630.0,644.0,658.0,662.0,667.0,679.0,692.0,700.0,709.0,721.0,733.0,748.0,764.0,772.0,780.0,771.0,761.0,745.0,729.0,730.0,732.0,748.0,765.0,772.0,779.0,780.0,781.0,779.0,776.0,767.0,758.0,745.0,732.0,736.0,741.0,756.0,771.0,771.0,770.0,758.0,746.0,730.0,714.0,694.0,674.0,656.0,638.0,626.0,614.0,601.0,588.0,579.0,570.0,566.0,561.0,556.0,550.0,556.0,563.0,571.0,580.0,587.0,594.0,610.0,626.0,644.0,663.0,678.0,693.0,706.0,719.0,714.0,708.0,685.0,662.0,636.0,609.0,601.0,593.0,615.0,637.0,648.0,660.0,675.0,691.0,706.0,722.0,724.0,727.0,723.0,719.0,722.0,726.0,733.0,740.0,746.0,753.0,752.0,751.0,738.0,724.0,708.0,692.0,683.0,674.0,665.0,655.0,649.0,643.0,645.0,647.0,645.0,643.0,639.0,634.0,628.0,621.0,619.0,616.0,621.0,626.0,626.0,625.0,617.0,609.0,600.0,591.0,587.0,583.0
684.0,680.0,676.0,669.0,661.0,648.0,634.0,622.0,609.0,598.0,586.0,583.0,580.0,576.0,571.0,567.0,562.0,573.0,584.0,602.0,620.0,635.0,650.0,659.0,668.0,669.0,670.0,674.0,678.0,687.0,697.0,710.0,723.0,740.0,757.0,766.0,775.0,766.0,756.0,745.0,733.0,747.0,762.0,773.0,784.0,786.0,788.0,792.0,796.0,794.0,792.0,781.0,770.0,758.0,746.0,745.0,743.0,751.0,760.0,761.0,762.0,752.0,741.0,723.0,704.0,693.0,681.0,671.0,661.0,645.0,629.0,611.0,592.0,576.0,559.0,559.0,559.0,569.0,579.0,590.0,601.0,606.0,611.0,613.0,616.0,628.0,641.0,662.0,683.0,696.0,709.0,716.0,724.0,714.0,703.0,681.0,659.0,632.0,605.0,607.0,610.0,634.0,659.0,671.0,683.0,692.0,702.0,714.0,727.0,730.0,734.0,733.0,731.0,738.0,745.0,749.0,753.0,758.0,763.0,760.0,756.0,742.0,727.0,710.0,692.0,681.0,670.0,668.0,665.0,665.0,666.0,665.0,663.0,656.0,649.0,642.0,634.0,634.0,635.0,631.0,627.0,624.0,620.0,619.0,617.0,610.0,603.0,603.0,602.0,606.0,611.0
677.0,676.0,675.0,669.0,662.0,647.0,632.0,625.0,617.0,605.0,593.0,592.0,590.0,580.0,570.0,568.0,565.0,572.0,580.0,596.0,613.0,625.0,638.0,644.0,651.0,651.0,651.0,655.0,660.0,673.0,687.0,699.0,712.0,731.0,750.0,760.0,770.0,764.0,757.0,751.0,745.0,761.0,778.0,786.0,794.0,795.0,797.0,798.0,800.0,797.0,794.0,784.0,773.0,767.0,761.0,754.0,747.0,750.0,753.0,754.0,755.0,746.0,737.0,725.0,712.0,709.0,706.0,698.0,689.0,667.0,645.0,620.0,595.0,582.0,569.0,584.0,599.0,613.0,628.0,636.0,645.0,646.0,648.0,642.0,635.0,643.0,652.0,672.0,693.0,704.0,715.0,716.0,717.0,706.0,694.0,671.0,647.0,626.0,605.0,614.0,623.0,652.0,682.0,694.0,707.0,713.0,719.0,727.0,736.0,736.0,736.0,737.0,739.0,743.0,748.0,753.0,759.0,764.0,770.0,764.0,757.0,743.0,729.0,715.0,701.0,686.0,671.0,673.0,675.0,677.0,680.0,675.0,669.0,665.0,661.0,649.0,636.0,640.0,644.0,638.0,632.0,627.0,621.0,621.0,621.0,620.0,619.0,620.0,622.0,624.0,627.0
664.0,665.0,666.0,662.0,658.0,648.0,638.0,633.0,628.0,623.0,618.0,611.0,603.0,597.0,590.0,584.0,578.0,574.0,569.0,576.0,583.0,596.0,609.0,618.0,627.0,637.0,648.0,655.0,663.0,675.0,688.0,696.0,704.0,721.0,739.0,754.0,769.0,768.0,767.0,764.0,760.0,760.0,759.0,770.0,782.0,787.0,792.0,795.0,798.0,798.0,797.0,790.0,782.0,779.0,775.0,770.0,765.0,761.0,757.0,755.0,752.0,745.0,737.0,732.0,727.0,727.0,726.0,712.0,698.0,673.0,648.0,621.0,594.0,587.0,579.0,605.0,632.0,651.0,670.0,677.0,685.0,686.0,687.0,676.0,664.0,665.0,666.0,680.0,695.0,700.0,706.0,702.0,698.0,687.0,676.0,654.0,631.0,625.0,618.0,637.0,657.0,679.0,701.0,712.0,724.0,731.0,738.0,743.0,748.0,744.0,739.0,739.0,740.0,744.0,749.0,757.0,765.0,771.0,777.0,766.0,754.0,740.0,726.0,713.0,699.0,683.0,666.0,668.0,670.0,677.0,685.0,680.0,674.0,671.0,668.0,659.0,649.0,647.0,645.0,638.0,630.0,628.0,626.0,629.0,633.0,634.0,636.0,637.0,638.0,639.0,640.0
648.0,653.0,659.0,656.0,653.0,646.0,638.0,634.0,629.0,627.0,624.0,618.0,611.0,610.0,608.0,608.0,607.0,595.0,583.0,581.0,579.0,582.0,585.0,599.0,614.0,628.0,642.0,650.0,658.0,663.0,669.0,678.0,687.0,705.0,724.0,744.0,765.0,771.0,777.0,776.0,775.0,773.0,771.0,771.0,771.0,778.0,786.0,791.0,796.0,799.0,802.0,799.0,795.0,790.0,784.0,779.0,774.0,767.0,760.0,758.0,756.0,750.0,743.0,743.0,742.0,740.0,737.0,720.0,702.0,674.0,646.0,619.0,591.0,587.0,583.0,616.0,649.0,671.0,694.0,705.0,717.0,719.0,722.0,715.0,708.0,698.0,688.0,688.0,688.0,688.0,688.0,683.0,677.0,665.0,653.0,638.0,622.0,630.0,639.0,658.0,677.0,698.0,720.0,732.0,744.0,748.0,753.0,751.0,748.0,744.0,739.0,736.0,733.0,738.0,743.0,752.0,762.0,764.0,767.0,754.0,740.0,726.0,711.0,698.0,685.0,669.0,652.0,653.0,655.0,665.0,675.0,675.0,674.0,672.0,670.0,663.0,655.0,648.0,641.0,637.0,633.0,634.0,635.0,640.0,646.0,647.0,648.0,648.0,649.0,649.0,648.0
647.0,651.0,656.0,654.0,652.0,645.0,637.0,630.0,623.0,622.0,620.0,617.0,614.0,613.0,612.0,618.0,624.0,622.0,620.0,615.0,610.0,598.0,585.0,588.0,592.0,610.0,629.0,639.0,650.0,655.0,660.0,670.0,680.0,699.0,718.0,737.0,757.0,765.0,773.0,773.0,774.0,774.0,775.0,776.0,777.0,782.0,787.0,792.0,798.0,801.0,805.0,806.0,808.0,804.0,800.0,792.0,783.0,773.0,763.0,760.0,756.0,748.0,739.0,737.0,735.0,733.0,731.0,714.0,696.0,667.0,638.0,611.0,583.0,584.0,586.0,617.0,648.0,673.0,698.0,714.0,731.0,736.0,741.0,735.0,729.0,714.0,698.0,685.0,671.0,668.0,664.0,659.0,654.0,643.0,632.0,633.0,634.0,652.0,670.0,683.0,697.0,714.0,731.0,744.0,758.0,759.0,760.0,754.0,747.0,742.0,736.0,727.0,718.0,725.0,733.0,741.0,750.0,747.0,743.0,736.0,728.0,711.0,694.0,680.0,666.0,651.0,636.0,636.0,635.0,645.0,656.0,661.0,667.0,670.0,674.0,666.0,658.0,651.0,643.0,641.0,639.0,641.0,643.0,647.0,651.0,652.0,653.0,653.0,653.0,652.0,651.0
644.0,649.0,654.0,651.0,648.0,639.0,629.0,622.0,614.0,612.0,609.0,609.0,609.0,612.0,615.0,621.0,627.0,633.0,639.0,636.0,633.0,617.0,601.0,591.0,581.0,602.0,623.0,639.0,655.0,667.0,680.0,690.0,701.0,714.0,727.0,739.0,751.0,753.0,756.0,760.0,765.0,768.0,771.0,775.0,779.0,785.0,792.0,797.0,803.0,806.0,809.0,810.0,812.0,808.0,803.0,797.0,790.0,781.0,771.0,761.0,750.0,736.0,721.0,714.0,707.0,705.0,702.0,689.0,675.0,653.0,630.0,606.0,581.0,587.0,593.0,614.0,636.0,665.0,694.0,714.0,735.0,742.0,750.0,741.0,732.0,720.0,707.0,692.0,676.0,671.0,665.0,664.0,662.0,645.0,628.0,641.0,655.0,675.0,696.0,708.0,720.0,732.0,745.0,755.0,766.0,766.0,766.0,755.0,744.0,731.0,717.0,707.0,697.0,704.0,711.0,719.0,727.0,726.0,725.0,722.0,719.0,705.0,691.0,678.0,664.0,648.0,631.0,622.0,613.0,621.0,629.0,641.0,653.0,656.0,660.0,657.0,653.0,653.0,653.0,648.0,642.0,640.0,637.0,637.0,638.0,638.0,637.0,637.0,637.0,637.0,636.0
634.0,635.0,637.0,634.0,630.0,621.0,612.0,606.0,600.0,599.0,597.0,596.0,595.0,598.0,602.0,606.0,610.0,620.0,631.0,637.0,643.0,628.0,613.0,598.0,582.0,592.0,603.0,626.0,650.0,666.0,683.0,695.0,708.0,718.0,728.0,728.0,729.0,728.0,727.0,735.0,744.0,745.0,746.0,754.0,763.0,775.0,787.0,796.0,805.0,806.0,808.0,805.0,801.0,799.0,796.0,791.0,786.0,777.0,767.0,752.0,737.0,726.0,714.0,697.0,680.0,671.0,662.0,654.0,645.0,631.0,617.0,599.0,581.0,592.0,603.0,625.0,647.0,673.0,700.0,720.0,741.0,746.0,752.0,745.0,738.0,723.0,707.0,703.0,698.0,697.0,695.0,688.0,680.0,661.0,642.0,650.0,658.0,676.0,695.0,710.0,726.0,738.0,751.0,759.0,768.0,768.0,768.0,755.0,741.0,722.0,703.0,691.0,679.0,682.0,686.0,692.0,699.0,699.0,699.0,702.0,705.0,701.0,697.0,687.0,677.0,654.0,631.0,614.0,597.0,601.0,605.0,616.0,628.0,630.0,633.0,636.0,639.0,642.0,645.0,641.0,637.0,626.0,615.0,612.0,609.0,607.0,604.0,603.0,602.0,602.0,603.0
634.0,630.0,626.0,625.0,623.0,616.0,608.0,603.0,598.0,599.0,600.0,599.0,598.0,602.0,606.0,601.0,596.0,602.0,609.0,619.0,629.0,627.0,625.0,612.0,598.0,594.0,589.0,612.0,636.0,654.0,672.0,686.0,700.0,707.0,715.0,710.0,705.0,701.0,696.0,701.0,706.0,713.0,721.0,737.0,754.0,769.0,784.0,793.0,803.0,803.0,804.0,799.0,793.0,791.0,788.0,785.0,781.0,771.0,761.0,744.0,726.0,716.0,706.0,687.0,668.0,653.0,637.0,628.0,619.0,606.0,593.0,586.0,578.0,600.0,623.0,649.0,676.0,695.0,715.0,731.0,748.0,752.0,757.0,747.0,737.0,725.0,712.0,713.0,714.0,710.0,706.0,694.0,682.0,671.0,660.0,658.0,656.0,669.0,683.0,698.0,713.0,724.0,736.0,748.0,761.0,765.0,769.0,758.0,747.0,727.0,707.0,687.0,667.0,662.0,656.0,660.0,664.0,667.0,671.0,677.0,684.0,686.0,688.0,677.0,666.0,644.0,622.0,606.0,590.0,591.0,592.0,594.0,596.0,596.0,595.0,601.0,608.0,614.0,620.0,615.0,610.0,602.0,594.0,586.0,578.0,576.0,573.0,574.0,576.0,574.0,572.0
645.0,641.0,636.0,631.0,625.0,617.0,609.0,607.0,605.0,611.0,618.0,614.0,610.0,612.0,615.0,609.0,602.0,597.0,592.0,600.0,608.0,610.0,612.0,603.0,593.0,588.0,583.0,604.0,625.0,647.0,669.0,677.0,686.0,687.0,688.0,684.0,679.0,673.0,666.0,676.0,687.0,708.0,729.0,746.0,763.0,776.0,790.0,795.0,800.0,797.0,794.0,788.0,782.0,779.0,776.0,775.0,774.0,765.0,756.0,741.0,726.0,716.0,705.0,689.0,672.0,659.0,646.0,634.0,621.0,605.0,588.0,589.0,590.0,619.0,649.0,675.0,702.0,716.0,731.0,744.0,757.0,759.0,761.0,752.0,743.0,732.0,721.0,720.0,718.0,712.0,705.0,692.0,678.0,682.0,686.0,682.0,678.0,679.0,680.0,690.0,700.0,713.0,726.0,740.0,754.0,762.0,771.0,762.0,752.0,736.0,719.0,702.0,685.0,672.0,659.0,651.0,643.0,644.0,646.0,651.0,657.0,660.0,664.0,652.0,639.0,621.0,603.0,595.0,586.0,586.0,585.0,583.0,580.0,579.0,578.0,578.0,578.0,581.0,585.0,583.0,581.0,580.0,579.0,581.0,583.0,588.0,594.0,597.0,600.0,597.0,594.0
646.0,641.0,635.0,628.0,621.0,617.0,613.0,620.0,627.0,628.0,630.0,626.0,622.0,622.0,623.0,614.0,604.0,596.0,588.0,588.0,587.0,587.0,588.0,587.0,585.0,584.0,583.0,603.0,623.0,640.0,658.0,658.0,657.0,657.0,658.0,657.0,655.0,658.0,661.0,676.0,691.0,718.0,746.0,759.0,772.0,782.0,792.0,790.0,788.0,785.0,781.0,774.0,766.0,763.0,759.0,763.0,767.0,759.0,751.0,738.0,725.0,718.0,711.0,701.0,691.0,680.0,669.0,649.0,628.0,608.0,587.0,599.0,611.0,640.0,669.0,692.0,715.0,730.0,745.0,755.0,765.0,765.0,764.0,757.0,749.0,745.0,741.0,739.0,736.0,727.0,718.0,709.0,699.0,700.0,701.0,698.0,694.0,696.0,698.0,700.0,702.0,713.0,724.0,739.0,754.0,761.0,768.0,760.0,751.0,737.0,723.0,711.0,699.0,686.0,672.0,662.0,651.0,646.0,640.0,634.0,627.0,628.0,629.0,619.0,608.0,599.0,589.0,589.0,589.0,589.0,588.0,588.0,587.0,581.0,574.0,580.0,586.0,589.0,593.0,594.0,595.0,599.0,603.0,608.0,613.0,617.0,621.0,623.0,626.0,625.0,623.0
643.0,639.0,634.0,630.0,625.0,624.0,623.0,632.0,641.0,644.0,647.0,642.0,637.0,633.0,628.0,617.0,606.0,599.0,592.0,593.0,594.0,592.0,590.0,592.0,594.0,590.0,586.0,599.0,612.0,621.0,630.0,631.0,632.0,643.0,654.0,662.0,670.0,678.0,686.0,696.0,706.0,731.0,756.0,766.0,776.0,782.0,789.0,786.0,782.0,779.0,775.0,759.0,743.0,741.0,739.0,746.0,753.0,749.0,744.0,735.0,725.0,721.0,717.0,713.0,709.0,692.0,675.0,648.0,620.0,603.0,586.0,606.0,626.0,652.0,679.0,700.0,721.0,736.0,751.0,757.0,764.0,765.0,767.0,763.0,759.0,759.0,758.0,756.0,753.0,745.0,736.0,729.0,722.0,723.0,724.0,718.0,711.0,711.0,710.0,713.0,717.0,723.0,729.0,742.0,755.0,752.0,748.0,740.0,732.0,726.0,719.0,711.0,702.0,688.0,673.0,662.0,650.0,647.0,643.0,633.0,622.0,610.0,597.0,596.0,595.0,601.0,608.0,613.0,619.0,622.0,625.0,622.0,618.0,609.0,599.0,603.0,608.0,616.0,625.0,626.0,627.0,630.0,633.0,639.0,645.0,647.0,650.0,656.0,662.0,658.0,653.0
643.0,641.0,638.0,633.0,628.0,627.0,626.0,635.0,645.0,651.0,657.0,660.0,663.0,654.0,645.0,633.0,621.0,615.0,609.0,609.0,608.0,605.0,602.0,597.0,592.0,589.0,586.0,591.0,596.0,608.0,621.0,638.0,655.0,671.0,687.0,693.0,700.0,703.0,707.0,719.0,731.0,742.0,754.0,763.0,772.0,779.0,786.0,784.0,781.0,773.0,764.0,743.0,722.0,720.0,718.0,728.0,738.0,737.0,736.0,731.0,726.0,727.0,728.0,723.0,718.0,697.0,676.0,646.0,616.0,602.0,588.0,610.0,633.0,655.0,677.0,694.0,711.0,725.0,739.0,749.0,760.0,766.0,772.0,773.0,774.0,774.0,775.0,772.0,769.0,762.0,754.0,749.0,744.0,746.0,748.0,741.0,733.0,732.0,731.0,731.0,731.0,730.0,728.0,730.0,733.0,723.0,712.0,705.0,698.0,698.0,699.0,695.0,691.0,684.0,677.0,669.0,660.0,657.0,653.0,638.0,623.0,608.0,592.0,599.0,606.0,616.0,627.0,636.0,646.0,647.0,649.0,639.0,629.0,620.0,611.0,622.0,634.0,642.0,651.0,653.0,656.0,657.0,658.0,663.0,669.0,672.0,676.0,680.0,684.0,681.0,678.0
653.0,649.0,645.0,643.0,641.0,635.0,628.0,635.0,643.0,654.0,665.0,669.0,673.0,661.0,648.0,638.0,628.0,623.0,618.0,614.0,610.0,605.0,599.0,595.0,590.0,590.0,590.0,591.0,592.0,614.0,637.0,656.0,675.0,683.0,692.0,698.0,704.0,706.0,708.0,716.0,724.0,734.0,744.0,755.0,767.0,773.0,780.0,779.0,777.0,766.0,754.0,734.0,713.0,707.0,700.0,713.0,726.0,726.0,726.0,718.0,710.0,713.0,716.0,714.0,712.0,696.0,679.0,652.0,624.0,608.0,591.0,609.0,628.0,643.0,658.0,673.0,688.0,705.0,722.0,740.0,758.0,767.0,776.0,781.0,787.0,790.0,793.0,790.0,786.0,780.0,774.0,770.0,766.0,762.0,757.0,754.0,750.0,748.0,745.0,739.0,732.0,723.0,714.0,709.0,703.0,692.0,680.0,674.0,667.0,665.0,663.0,663.0,663.0,665.0,668.0,666.0,664.0,656.0,648.0,631.0,614.0,614.0,615.0,623.0,632.0,642.0,653.0,664.0,675.0,670.0,665.0,651.0,637.0,636.0,634.0,643.0,652.0,662.0,672.0,676.0,681.0,680.0,679.0,683.0,688.0,692.0,696.0,697.0,698.0,693.0,688.0
663.0,659.0,655.0,655.0,654.0,647.0,640.0,640.0,641.0,649.0,657.0,658.0,660.0,652.0,643.0,632.0,621.0,617.0,613.0,608.0,602.0,601.0,600.0,607.0,614.0,610.0,606.0,599.0,592.0,607.0,623.0,640.0,657.0,660.0,664.0,668.0,672.0,677.0,682.0,696.0,711.0,723.0,736.0,747.0,759.0,765.0,771.0,771.0,770.0,761.0,751.0,730.0,708.0,699.0,690.0,704.0,718.0,715.0,712.0,700.0,688.0,688.0,689.0,690.0,692.0,684.0,675.0,653.0,631.0,617.0,602.0,620.0,638.0,655.0,672.0,686.0,700.0,714.0,728.0,744.0,760.0,769.0,779.0,788.0,798.0,802.0,806.0,803.0,799.0,795.0,791.0,787.0,783.0,777.0,771.0,768.0,765.0,758.0,751.0,738.0,725.0,712.0,698.0,692.0,686.0,679.0,671.0,661.0,650.0,645.0,639.0,638.0,637.0,639.0,641.0,642.0,643.0,636.0,628.0,620.0,611.0,624.0,638.0,649.0,660.0,673.0,687.0,692.0,698.0,684.0,669.0,661.0,652.0,657.0,662.0,667.0,673.0,682.0,691.0,695.0,699.0,697.0,694.0,693.0,692.0,696.0,701.0,700.0,699.0,691.0,682.0
672.0,668.0,664.0,661.0,658.0,652.0,646.0,646.0,645.0,648.0,652.0,650.0,647.0,640.0,633.0,622.0,611.0,606.0,600.0,604.0,609.0,621.0,634.0,639.0,645.0,636.0,627.0,613.0,598.0,599.0,600.0,612.0,625.0,632.0,640.0,648.0,657.0,665.0,673.0,688.0,704.0,714.0,725.0,735.0,745.0,751.0,758.0,758.0,759.0,754.0,748.0,724.0,700.0,687.0,674.0,688.0,703.0,702.0,701.0,694.0,686.0,680.0,673.0,671.0,668.0,662.0,656.0,644.0,631.0,618.0,604.0,621.0,638.0,661.0,684.0,700.0,717.0,729.0,741.0,751.0,762.0,772.0,782.0,791.0,800.0,804.0,809.0,807.0,804.0,800.0,796.0,796.0,797.0,789.0,781.0,775.0,768.0,759.0,749.0,737.0,725.0,709.0,692.0,686.0,680.0,669.0,657.0,654.0,651.0,650.0,648.0,646.0,643.0,639.0,634.0,628.0,621.0,615.0,608.0,616.0,624.0,641.0,658.0,667.0,676.0,686.0,696.0,699.0,703.0,685.0,667.0,669.0,672.0,679.0,686.0,690.0,695.0,700.0,706.0,708.0,711.0,708.0,705.0,706.0,707.0,702.0,697.0,689.0,681.0,672.0,663.0
679.0,674.0,669.0,665.0,660.0,655.0,649.0,647.0,644.0,644.0,645.0,639.0,632.0,626.0,619.0,613.0,607.0,607.0,608.0,621.0,634.0,650.0,666.0,667.0,668.0,655.0,642.0,627.0,611.0,603.0,594.0,604.0,614.0,632.0,651.0,663.0,675.0,682.0,690.0,695.0,701.0,707.0,713.0,719.0,726.0,735.0,745.0,749.0,754.0,752.0,749.0,727.0,705.0,686.0,666.0,672.0,679.0,681.0,683.0,675.0,667.0,654.0,641.0,637.0,632.0,628.0,624.0,621.0,617.0,612.0,607.0,616.0,626.0,652.0,679.0,698.0,718.0,730.0,743.0,751.0,760.0,769.0,778.0,786.0,795.0,800.0,805.0,804.0,802.0,797.0,792.0,793.0,795.0,789.0,783.0,776.0,769.0,766.0,762.0,747.0,732.0,716.0,700.0,697.0,694.0,678.0,662.0,663.0,665.0,667.0,669.0,665.0,661.0,654.0,647.0,637.0,626.0,620.0,613.0,626.0,640.0,654.0,668.0,678.0,689.0,695.0,702.0,703.0,704.0,693.0,682.0,687.0,692.0,699.0,707.0,709.0,712.0,711.0,710.0,710.0,711.0,709.0,707.0,707.0,708.0,700.0,691.0,675.0,659.0,650.0,640.0
665.0,663.0,661.0,658.0,655.0,651.0,647.0,645.0,643.0,639.0,634.0,629.0,623.0,616.0,609.0,618.0,627.0,627.0,628.0,640.0,653.0,670.0,687.0,687.0,687.0,676.0,665.0,651.0,636.0,619.0,602.0,602.0,601.0,616.0,632.0,649.0,666.0,678.0,690.0,691.0,692.0,693.0,695.0,700.0,706.0,716.0,726.0,734.0,743.0,743.0,742.0,728.0,714.0,696.0,678.0,667.0,656.0,656.0,657.0,654.0,651.0,651.0,650.0,640.0,629.0,619.0,609.0,611.0,614.0,617.0,620.0,619.0,618.0,642.0,666.0,685.0,705.0,719.0,734.0,742.0,751.0,759.0,767.0,774.0,781.0,787.0,793.0,793.0,793.0,788.0,782.0,782.0,782.0,777.0,772.0,768.0,764.0,757.0,750.0,739.0,728.0,716.0,703.0,696.0,688.0,682.0,676.0,681.0,686.0,686.0,685.0,679.0,673.0,663.0,652.0,637.0,622.0,626.0,630.0,641.0,653.0,658.0,663.0,677.0,691.0,697.0,704.0,704.0,703.0,701.0,698.0,703.0,708.0,714.0,721.0,721.0,721.0,714.0,706.0,703.0,699.0,699.0,699.0,697.0,695.0,685.0,674.0,660.0,646.0,634.0,622.0
643.0,641.0,638.0,641.0,645.0,644.0,643.0,641.0,639.0,634.0,629.0,620.0,611.0,617.0,624.0,640.0,656.0,653.0,650.0,654.0,659.0,675.0,692.0,693.0,694.0,688.0,682.0,672.0,662.0,643.0,623.0,614.0,604.0,602.0,600.0,613.0,627.0,645.0,663.0,669.0,676.0,676.0,677.0,678.0,679.0,691.0,704.0,714.0,724.0,727.0,730.0,723.0,715.0,705.0,695.0,684.0,673.0,674.0,675.0,677.0,680.0,678.0,675.0,656.0,637.0,624.0,610.0,626.0,642.0,643.0,644.0,628.0,612.0,627.0,642.0,661.0,681.0,696.0,711.0,722.0,734.0,740.0,747.0,755.0,763.0,772.0,781.0,782.0,783.0,780.0,776.0,772.0,768.0,759.0,749.0,746.0,742.0,736.0,730.0,719.0,707.0,698.0,688.0,684.0,680.0,687.0,694.0,700.0,706.0,701.0,695.0,687.0,678.0,665.0,651.0,634.0,616.0,627.0,639.0,654.0,670.0,675.0,680.0,689.0,698.0,704.0,710.0,712.0,714.0,713.0,712.0,716.0,721.0,725.0,730.0,727.0,723.0,713.0,703.0,695.0,686.0,684.0,682.0,679.0,675.0,664.0,652.0,640.0,628.0,620.0,612.0
649.0,643.0,637.0,635.0,633.0,632.0,631.0,628.0,625.0,621.0,617.0,617.0,618.0,635.0,652.0,665.0,678.0,674.0,670.0,668.0,666.0,678.0,690.0,690.0,691.0,687.0,683.0,678.0,672.0,656.0,639.0,629.0,618.0,610.0,602.0,602.0,602.0,614.0,627.0,637.0,647.0,647.0,647.0,655.0,664.0,679.0,695.0,705.0,715.0,716.0,717.0,717.0,717.0,714.0,711.0,707.0,702.0,700.0,698.0,696.0,693.0,683.0,672.0,651.0,630.0,630.0,630.0,651.0,672.0,671.0,669.0,650.0,630.0,623.0,616.0,633.0,650.0,664.0,679.0,690.0,702.0,708.0,714.0,726.0,738.0,754.0,771.0,773.0,775.0,771.0,766.0,763.0,759.0,752.0,744.0,739.0,734.0,723.0,712.0,699.0,685.0,684.0,683.0,690.0,698.0,703.0,708.0,705.0,702.0,698.0,694.0,687.0,679.0,666.0,653.0,640.0,626.0,635.0,645.0,661.0,678.0,686.0,694.0,703.0,712.0,719.0,726.0,728.0,731.0,730.0,729.0,731.0,733.0,736.0,739.0,732.0,725.0,714.0,702.0,691.0,679.0,670.0,660.0,656.0,652.0,642.0,631.0,628.0,625.0,626.0,628.0
658.0,652.0,646.0,639.0,632.0,627.0,621.0,621.0,621.0,625.0,630.0,635.0,641.0,658.0,675.0,687.0,700.0,694.0,688.0,688.0,688.0,692.0,696.0,695.0,693.0,687.0,681.0,679.0,676.0,663.0,649.0,640.0,631.0,619.0,606.0,604.0,601.0,605.0,609.0,614.0,620.0,629.0,639.0,652.0,666.0,677.0,689.0,697.0,705.0,710.0,715.0,718.0,721.0,721.0,722.0,719.0,715.0,709.0,702.0,692.0,682.0,672.0,662.0,648.0,633.0,647.0,661.0,681.0,702.0,702.0,702.0,680.0,658.0,637.0,615.0,618.0,622.0,635.0,648.0,661.0,675.0,689.0,704.0,726.0,749.0,764.0,780.0,779.0,778.0,770.0,762.0,760.0,757.0,753.0,749.0,742.0,735.0,727.0,719.0,708.0,697.0,701.0,706.0,711.0,716.0,712.0,708.0,703.0,697.0,691.0,684.0,678.0,672.0,663.0,653.0,641.0,628.0,637.0,646.0,660.0,675.0,686.0,698.0,710.0,723.0,734.0,746.0,750.0,754.0,752.0,749.0,749.0,748.0,745.0,742.0,734.0,726.0,715.0,703.0,690.0,676.0,661.0,646.0,642.0,637.0,640.0,643.0,649.0,655.0,661.0,667.0
655.0,650.0,644.0,641.0,638.0,638.0,638.0,642.0,646.0,654.0,662.0,667.0,672.0,686.0,700.0,711.0,722.0,714.0,705.0,705.0,705.0,704.0,702.0,694.0,686.0,684.0,681.0,679.0,676.0,667.0,658.0,648.0,637.0,623.0,608.0,607.0,605.0,612.0,620.0,624.0,628.0,633.0,639.0,649.0,660.0,667.0,674.0,683.0,693.0,706.0,719.0,728.0,737.0,737.0,736.0,727.0,718.0,710.0,702.0,690.0,678.0,667.0,655.0,646.0,637.0,660.0,684.0,703.0,723.0,725.0,728.0,707.0,685.0,655.0,625.0,622.0,618.0,639.0,661.0,674.0,688.0,707.0,727.0,750.0,773.0,784.0,795.0,793.0,791.0,785.0,778.0,773.0,767.0,762.0,757.0,751.0,744.0,737.0,729.0,723.0,716.0,721.0,726.0,724.0,721.0,713.0,705.0,698.0,691.0,684.0,677.0,671.0,664.0,657.0,649.0,639.0,629.0,637.0,646.0,661.0,677.0,686.0,695.0,709.0,723.0,735.0,748.0,755.0,762.0,759.0,755.0,750.0,745.0,738.0,730.0,725.0,719.0,707.0,695.0,685.0,674.0,665.0,656.0,655.0,654.0,661.0,669.0,679.0,690.0,697.0,705.0
654.0,653.0,651.0,653.0,656.0,655.0,653.0,660.0,667.0,679.0,691.0,699.0,708.0,722.0,736.0,737.0,739.0,732.0,724.0,719.0,714.0,708.0,701.0,692.0,683.0,674.0,665.0,665.0,666.0,660.0,654.0,646.0,638.0,624.0,610.0,611.0,612.0,622.0,632.0,640.0,648.0,648.0,649.0,652.0,655.0,665.0,676.0,693.0,710.0,718.0,727.0,735.0,743.0,743.0,743.0,738.0,733.0,722.0,711.0,702.0,693.0,675.0,657.0,648.0,638.0,663.0,689.0,710.0,731.0,734.0,737.0,717.0,696.0,667.0,637.0,629.0,620.0,645.0,670.0,693.0,717.0,733.0,750.0,766.0,782.0,791.0,800.0,799.0,798.0,793.0,788.0,782.0,776.0,770.0,763.0,755.0,747.0,739.0,731.0,731.0,732.0,733.0,735.0,730.0,724.0,716.0,707.0,705.0,702.0,695.0,688.0,677.0,665.0,658.0,650.0,641.0,631.0,641.0,651.0,666.0,682.0,691.0,701.0,712.0,724.0,733.0,742.0,748.0,754.0,753.0,751.0,746.0,741.0,734.0,727.0,719.0,710.0,701.0,692.0,685.0,678.0,676.0,673.0,673.0,673.0,674.0,676.0,686.0,697.0,704.0,712.0
660.0,665.0,670.0,673.0,677.0,672.0,667.0,673.0,680.0,695.0,711.0,723.0,736.0,741.0,747.0,748.0,749.0,741.0,732.0,723.0,713.0,705.0,696.0,687.0,678.0,663.0,648.0,646.0,643.0,642.0,641.0,634.0,627.0,619.0,611.0,613.0,615.0,626.0,638.0,649.0,660.0,665.0,671.0,670.0,669.0,678.0,687.0,706.0,725.0,728.0,731.0,735.0,740.0,742.0,745.0,741.0,737.0,727.0,716.0,706.0,695.0,677.0,658.0,644.0,630.0,652.0,675.0,698.0,722.0,728.0,735.0,722.0,708.0,683.0,658.0,641.0,624.0,642.0,660.0,683.0,706.0,721.0,736.0,748.0,761.0,776.0,791.0,795.0,800.0,797.0,793.0,788.0,782.0,775.0,767.0,757.0,746.0,742.0,738.0,742.0,747.0,746.0,744.0,739.0,734.0,730.0,725.0,723.0,721.0,707.0,692.0,679.0,666.0,659.0,651.0,642.0,633.0,645.0,658.0,672.0,687.0,698.0,709.0,719.0,729.0,736.0,743.0,746.0,750.0,749.0,747.0,741.0,735.0,728.0,721.0,715.0,709.0,704.0,699.0,695.0,691.0,691.0,690.0,688.0,686.0,686.0,687.0,692.0,698.0,703.0,708.0
667.0,681.0,695.0,697.0,699.0,689.0,678.0,687.0,696.0,713.0,730.0,741.0,752.0,753.0,754.0,751.0,748.0,739.0,729.0,719.0,709.0,700.0,691.0,677.0,663.0,650.0,637.0,632.0,627.0,625.0,623.0,619.0,614.0,612.0,610.0,611.0,612.0,620.0,629.0,641.0,653.0,662.0,671.0,674.0,677.0,681.0,686.0,704.0,723.0,729.0,736.0,737.0,739.0,742.0,745.0,743.0,740.0,731.0,721.0,709.0,697.0,686.0,675.0,663.0,651.0,659.0,668.0,691.0,714.0,722.0,731.0,725.0,718.0,692.0,665.0,646.0,626.0,633.0,640.0,657.0,674.0,690.0,707.0,724.0,741.0,760.0,780.0,789.0,798.0,798.0,799.0,794.0,788.0,779.0,769.0,760.0,751.0,751.0,751.0,755.0,760.0,761.0,762.0,755.0,747.0,741.0,735.0,730.0,725.0,708.0,690.0,676.0,662.0,652.0,641.0,643.0,646.0,658.0,670.0,680.0,690.0,700.0,711.0,722.0,733.0,739.0,745.0,747.0,750.0,748.0,746.0,742.0,737.0,733.0,728.0,725.0,722.0,720.0,717.0,713.0,709.0,709.0,708.0,703.0,697.0,694.0,690.0,692.0,694.0,698.0,702.0
675.0,694.0,714.0,714.0,715.0,704.0,693.0,699.0,706.0,723.0,740.0,747.0,755.0,753.0,750.0,742.0,734.0,726.0,717.0,707.0,696.0,683.0,670.0,658.0,645.0,638.0,631.0,631.0,630.0,627.0,624.0,620.0,615.0,612.0,609.0,615.0,622.0,626.0,631.0,632.0,634.0,641.0,648.0,655.0,662.0,669.0,677.0,694.0,712.0,727.0,743.0,743.0,744.0,746.0,749.0,747.0,745.0,738.0,731.0,717.0,702.0,699.0,696.0,687.0,678.0,682.0,686.0,703.0,720.0,724.0,728.0,720.0,712.0,682.0,652.0,644.0,636.0,637.0,639.0,644.0,650.0,668.0,687.0,706.0,725.0,742.0,759.0,776.0,793.0,798.0,804.0,798.0,791.0,784.0,776.0,770.0,764.0,761.0,758.0,760.0,762.0,762.0,762.0,756.0,749.0,741.0,733.0,725.0,716.0,703.0,689.0,676.0,662.0,654.0,646.0,658.0,670.0,679.0,689.0,694.0,699.0,705.0,712.0,721.0,731.0,738.0,746.0,748.0,751.0,750.0,749.0,746.0,742.0,741.0,739.0,739.0,739.0,737.0,735.0,731.0,727.0,722.0,717.0,712.0,706.0,700.0,694.0,692.0,690.0,690.0,689.0
695.0,712.0,729.0,729.0,729.0,722.0,714.0,718.0,722.0,731.0,740.0,743.0,747.0,743.0,739.0,730.0,720.0,713.0,705.0,691.0,677.0,667.0,656.0,650.0,644.0,643.0,641.0,639.0,636.0,632.0,627.0,622.0,617.0,615.0,613.0,624.0,636.0,642.0,649.0,650.0,651.0,656.0,661.0,663.0,665.0,670.0,676.0,695.0,714.0,732.0,751.0,752.0,754.0,753.0,752.0,749.0,746.0,738.0,730.0,717.0,704.0,711.0,718.0,711.0,703.0,701.0,698.0,711.0,724.0,727.0,730.0,716.0,701.0,673.0,645.0,651.0,657.0,662.0,668.0,655.0,642.0,655.0,668.0,686.0,704.0,725.0,746.0,767.0,788.0,797.0,807.0,803.0,798.0,792.0,786.0,780.0,774.0,767.0,759.0,759.0,760.0,758.0,756.0,750.0,743.0,734.0,724.0,715.0,705.0,697.0,688.0,678.0,667.0,665.0,662.0,676.0,691.0,701.0,711.0,713.0,716.0,718.0,720.0,723.0,726.0,733.0,740.0,746.0,753.0,753.0,754.0,753.0,752.0,754.0,756.0,755.0,754.0,749.0,744.0,738.0,732.0,723.0,713.0,707.0,700.0,696.0,691.0,686.0,681.0,677.0,672.0
712.0,729.0,746.0,743.0,740.0,737.0,734.0,733.0,731.0,731.0,730.0,730.0,730.0,727.0,723.0,717.0,711.0,700.0,688.0,676.0,663.0,659.0,654.0,655.0,656.0,655.0,654.0,651.0,648.0,643.0,637.0,628.0,619.0,624.0,630.0,641.0,653.0,660.0,667.0,669.0,671.0,676.0,681.0,684.0,687.0,690.0,693.0,708.0,723.0,737.0,752.0,755.0,759.0,758.0,756.0,753.0,749.0,739.0,728.0,714.0,700.0,715.0,731.0,728.0,725.0,718.0,711.0,719.0,727.0,731.0,736.0,717.0,698.0,673.0,647.0,663.0,680.0,692.0,704.0,683.0,661.0,658.0,654.0,674.0,694.0,718.0,743.0,762.0,781.0,793.0,805.0,805.0,805.0,801.0,797.0,790.0,782.0,773.0,764.0,761.0,757.0,754.0,751.0,741.0,730.0,720.0,709.0,700.0,690.0,679.0,668.0,666.0,664.0,671.0,678.0,693.0,708.0,718.0,729.0,733.0,737.0,738.0,739.0,738.0,737.0,740.0,744.0,753.0,762.0,764.0,767.0,768.0,769.0,770.0,771.0,767.0,762.0,752.0,742.0,732.0,721.0,714.0,707.0,700.0,693.0,689.0,684.0,683.0,681.0,673.0,665.0
723.0,738.0,753.0,752.0,751.0,748.0,744.0,734.0,724.0,720.0,716.0,711.0,706.0,701.0,696.0,692.0,688.0,680.0,672.0,668.0,664.0,665.0,667.0,670.0,673.0,672.0,670.0,665.0,659.0,648.0,636.0,628.0,619.0,633.0,648.0,659.0,670.0,679.0,689.0,687.0,685.0,684.0,683.0,687.0,691.0,694.0,697.0,710.0,723.0,735.0,747.0,750.0,754.0,754.0,754.0,752.0,750.0,739.0,727.0,719.0,710.0,727.0,745.0,747.0,749.0,749.0,748.0,746.0,744.0,743.0,741.0,721.0,701.0,677.0,653.0,667.0,682.0,704.0,726.0,712.0,698.0,677.0,655.0,670.0,685.0,708.0,731.0,747.0,763.0,779.0,796.0,801.0,806.0,804.0,802.0,793.0,784.0,772.0,759.0,755.0,750.0,746.0,741.0,727.0,713.0,703.0,692.0,683.0,674.0,668.0,662.0,664.0,667.0,676.0,686.0,699.0,713.0,724.0,735.0,741.0,748.0,750.0,752.0,754.0,756.0,758.0,761.0,765.0,769.0,769.0,769.0,770.0,772.0,769.0,766.0,760.0,753.0,740.0,727.0,716.0,704.0,698.0,691.0,684.0,676.0,673.0,670.0,672.0,675.0,666.0,656.0
